ply
format ascii 1.0
element vertex 754
property float x
property float y
property float z
property uchar red
property uchar green
property uchar blue
end_header
-0.45000000000000284 2.125 -0.980000000000004 35 223 6
-0.45000000000000284 2.1400000000000006 -0.9299999999999926 0 0 0
-0.4350000000000023 2.0600000000000023 -0.8849999999999909 0 0 0
-0.4200000000000017 2.0 -0.8400000000000034 0 0 0
-0.42499999999999716 2.010000000000005 -0.789999999999992 0 0 0
-0.4350000000000023 2.0799999999999983 -0.730000000000004 0 0 0
-0.42499999999999716 2.0250000000000057 -0.6899999999999977 0 0 0
-0.4299999999999926 2.0400000000000063 -0.6349999999999909 0 0 0
-0.4650000000000034 2.210000000000008 -2.3700000000000045 35 223 6
-0.45999999999999375 2.180000000000007 -2.280000000000001 0 0 0
-0.4449999999999932 2.115000000000009 -1.3349999999999937 35 223 6
-0.45999999999999375 2.1850000000000023 -2.219999999999999 0 0 0
-0.4549999999999983 2.180000000000007 -1.289999999999992 35 223 6
-0.4449999999999932 2.1200000000000045 -2.1200000000000045 0 0 0
-0.45000000000000284 2.155000000000001 -2.069999999999993 0 0 0
-3.424999999999997 16.35000000000001 -2.200000000000003 35 223 6
-0.45999999999999375 2.2049999999999983 -2.0349999999999966 0 0 0
-0.45999999999999375 2.210000000000008 -1.9749999999999943 0 0 0
-0.4549999999999983 2.180000000000007 -1.8999999999999915 35 223 6
-0.4399999999999977 2.1099999999999994 -0.980000000000004 35 223 6
-0.45000000000000284 2.1500000000000057 -0.9299999999999926 0 0 0
-0.4200000000000017 2.019999999999996 -0.8849999999999909 0 0 0
-0.4200000000000017 2.030000000000001 -0.8349999999999937 0 0 0
-0.41499999999999204 1.990000000000009 -0.789999999999992 0 0 0
-0.42499999999999716 2.049999999999997 -0.7349999999999994 0 0 0
-0.4200000000000017 2.0349999999999966 -0.6899999999999977 0 0 0
-0.42499999999999716 2.049999999999997 -0.6349999999999909 0 0 0
-0.45999999999999375 2.2150000000000034 -2.3700000000000045 35 223 6
-0.4549999999999983 2.180000000000007 -2.280000000000001 0 0 0
-0.4449999999999932 2.135000000000005 -1.3349999999999937 35 223 6
-0.4549999999999983 2.1850000000000023 -2.219999999999999 0 0 0
-0.4549999999999983 2.180000000000007 -1.289999999999992 35 223 6
-0.4399999999999977 2.1200000000000045 -2.1200000000000045 0 0 0
-0.45000000000000284 2.1650000000000063 -2.075000000000003 0 0 0
-3.450000000000003 16.644999999999996 -2.219999999999999 35 223 6
-0.4549999999999983 2.200000000000003 -2.030000000000001 0 0 0
-0.4549999999999983 2.2049999999999983 -1.9699999999999989 0 0 0
-2.819999999999993 13.625 -1.355000000000004 35 223 6
-0.45000000000000284 2.180000000000007 -1.8999999999999915 0 0 0
-0.4399999999999977 2.1299999999999955 -0.980000000000004 0 0 0
-0.4399999999999977 2.1400000000000006 -0.9299999999999926 0 0 0
-0.41499999999999204 2.0150000000000006 -0.8849999999999909 0 0 0
-0.4099999999999966 1.9750000000000085 -0.8400000000000034 0 0 0
-0.41499999999999204 2.010000000000005 -0.789999999999992 0 0 0
-0.4200000000000017 2.0450000000000017 -0.7349999999999994 0 0 0
-0.4200000000000017 2.030000000000001 -0.6899999999999977 0 0 0
-0.4200000000000017 2.055000000000007 -0.6349999999999909 0 0 0
-0.4549999999999983 2.219999999999999 -2.375 35 223 6
-0.45000000000000284 2.1899999999999977 -2.2849999999999966 0 0 0
-0.4399999999999977 2.144999999999996 -1.3400000000000034 35 223 6
-0.45000000000000284 2.1850000000000023 -2.2150000000000034 0 0 0
-0.45000000000000284 2.1950000000000074 -1.289999999999992 35 223 6
-0.4350000000000023 2.125 -2.1200000000000045 0 0 0
-0.4449999999999932 2.1700000000000017 -2.075000000000003 0 0 0
-3.2249999999999943 15.740000000000009 -2.155000000000001 35 223 6
-0.45000000000000284 2.2049999999999983 -2.030000000000001 0 0 0
-0.4549999999999983 2.219999999999999 -1.9749999999999943 0 0 0
-0.45000000000000284 2.200000000000003 -1.9050000000000011 0 0 0
-0.4350000000000023 2.1299999999999955 -0.980000000000004 0 0 0
-0.4399999999999977 2.155000000000001 -0.9299999999999926 0 0 0
-0.41499999999999204 2.0349999999999966 -0.8849999999999909 0 0 0
-0.4099999999999966 2.019999999999996 -0.8400000000000034 0 0 0
-0.4099999999999966 2.019999999999996 -0.789999999999992 0 0 0
-0.4099999999999966 2.019999999999996 -0.7399999999999949 0 0 0
-0.41499999999999204 2.0400000000000063 -0.6899999999999977 0 0 0
-0.41499999999999204 2.049999999999997 -0.6349999999999909 0 0 0
-0.45000000000000284 2.219999999999999 -2.375 35 223 6
-0.4449999999999932 2.1899999999999977 -2.2849999999999966 0 0 0
-0.4350000000000023 2.135000000000005 -1.3349999999999937 35 223 6
-0.4449999999999932 2.1899999999999977 -2.219999999999999 0 0 0
-0.4449999999999932 2.200000000000003 -1.289999999999992 35 223 6
-0.4299999999999926 2.125 -2.1200000000000045 0 0 0
-0.4399999999999977 2.1700000000000017 -2.0799999999999983 0 0 0
-3.230000000000004 15.950000000000003 -2.1700000000000017 35 223 6
-0.4449999999999932 2.2049999999999983 -2.030000000000001 0 0 0
-0.45000000000000284 2.219999999999999 -1.9749999999999943 0 0 0
-0.4449999999999932 2.200000000000003 -1.9050000000000011 0 0 0
-0.4350000000000023 2.1599999999999966 -0.980000000000004 35 223 6
-0.4350000000000023 2.155000000000001 -0.9299999999999926 0 0 0
-0.4099999999999966 2.0400000000000063 -0.8849999999999909 0 0 0
-0.40500000000000114 2.010000000000005 -0.8400000000000034 0 0 0
-0.40500000000000114 2.0150000000000006 -0.789999999999992 0 0 0
-0.41499999999999204 2.0649999999999977 -0.7349999999999994 0 0 0
-0.4099999999999966 2.030000000000001 -0.6899999999999977 0 0 0
-0.4099999999999966 2.0450000000000017 -0.6349999999999909 0 0 0
-0.4449999999999932 2.2250000000000085 -2.375 35 223 6
-0.4399999999999977 2.200000000000003 -2.289999999999992 0 0 0
-0.4299999999999926 2.144999999999996 -1.3400000000000034 35 223 6
-0.4399999999999977 2.1950000000000074 -2.219999999999999 0 0 0
-0.4399999999999977 2.2049999999999983 -1.289999999999992 35 223 6
-0.42499999999999716 2.1299999999999955 -2.1200000000000045 0 0 0
-0.4350000000000023 2.1700000000000017 -2.075000000000003 0 0 0
-3.3799999999999955 16.855000000000004 -2.230000000000004 35 223 6
-0.4449999999999932 2.2150000000000034 -2.0349999999999966 0 0 0
-0.4449999999999932 2.230000000000004 -1.980000000000004 0 0 0
-0.4399999999999977 2.210000000000008 -1.9099999999999966 0 0 0
-0.4299999999999926 2.1400000000000006 -0.980000000000004 35 223 6
-0.4299999999999926 2.144999999999996 -0.9299999999999926 0 0 0
-0.4099999999999966 2.0450000000000017 -0.8849999999999909 0 0 0
-0.3999999999999915 2.0150000000000006 -0.8400000000000034 0 0 0
-0.40500000000000114 2.0250000000000057 -0.789999999999992 0 0 0
-0.4099999999999966 2.0600000000000023 -0.7349999999999994 0 0 0
-0.40500000000000114 2.0349999999999966 -0.6899999999999977 0 0 0
-0.40500000000000114 2.0450000000000017 -0.6349999999999909 0 0 0
-0.4449999999999932 2.230000000000004 -2.3799999999999955 35 223 6
-0.4350000000000023 2.200000000000003 -2.289999999999992 0 0 0
-0.42499999999999716 2.135000000000005 -1.3349999999999937 35 223 6
-0.4350000000000023 2.200000000000003 -2.219999999999999 0 0 0
-0.4399999999999977 2.2150000000000034 -1.2950000000000017 35 223 6
-0.42499999999999716 2.1400000000000006 -2.125 0 0 0
-0.4299999999999926 2.180000000000007 -2.0799999999999983 0 0 0
-0.4399999999999977 2.2150000000000034 -2.0349999999999966 0 0 0
-0.4399999999999977 2.230000000000004 -1.980000000000004 0 0 0
-0.4350000000000023 2.2049999999999983 -1.9050000000000011 0 0 0
-0.42499999999999716 2.1500000000000057 -0.980000000000004 0 0 0
-0.42499999999999716 2.1599999999999966 -0.9249999999999972 0 0 0
-0.40500000000000114 2.049999999999997 -0.8849999999999909 0 0 0
-0.3999999999999915 2.019999999999996 -0.8400000000000034 0 0 0
-0.3999999999999915 2.0349999999999966 -0.789999999999992 0 0 0
-0.4099999999999966 2.0700000000000074 -0.7349999999999994 0 0 0
-0.3999999999999915 2.0400000000000063 -0.6899999999999977 0 0 0
-0.40500000000000114 2.049999999999997 -0.6349999999999909 0 0 0
-0.4399999999999977 2.240000000000009 -2.384999999999991 35 223 6
-0.4350000000000023 2.2049999999999983 -2.2950000000000017 0 0 0
-0.42499999999999716 2.155000000000001 -1.3400000000000034 35 223 6
-0.4350000000000023 2.210000000000008 -2.2249999999999943 0 0 0
-0.4200000000000017 2.1400000000000006 -2.125 0 0 0
-0.42499999999999716 2.180000000000007 -2.0799999999999983 0 0 0
-3.1499999999999915 16.08 -2.174999999999997 35 223 6
-0.4350000000000023 2.2250000000000085 -2.039999999999992 0 0 0
-0.4350000000000023 2.230000000000004 -1.980000000000004 0 0 0
-0.4350000000000023 2.2150000000000034 -1.9099999999999966 0 0 0
-0.4200000000000017 2.1599999999999966 -0.980000000000004 0 0 0
-0.4200000000000017 2.1599999999999966 -0.9249999999999972 0 0 0
-0.3999999999999915 2.049999999999997 -0.8849999999999909 0 0 0
-0.394999999999996 2.019999999999996 -0.8400000000000034 0 0 0
-0.394999999999996 2.030000000000001 -0.789999999999992 0 0 0
-1.0499999999999972 5.400000000000006 -2.3349999999999937 35 223 6
-0.3999999999999915 2.0649999999999977 -0.7349999999999994 0 0 0
-0.3999999999999915 2.049999999999997 -0.6850000000000023 0 0 0
-0.3999999999999915 2.055000000000007 -0.6349999999999909 0 0 0
-0.4350000000000023 2.240000000000009 -2.384999999999991 35 223 6
-0.4299999999999926 2.200000000000003 -2.289999999999992 0 0 0
-0.4200000000000017 2.155000000000001 -1.3400000000000034 35 223 6
-0.4299999999999926 2.2049999999999983 -2.2249999999999943 0 0 0
-0.41499999999999204 2.1400000000000006 -2.125 0 0 0
-0.42499999999999716 2.1899999999999977 -2.0849999999999937 0 0 0
-3.1400000000000006 16.185000000000002 -2.1850000000000023 35 223 6
-0.4299999999999926 2.2250000000000085 -2.039999999999992 0 0 0
-0.4350000000000023 2.240000000000009 -1.980000000000004 0 0 0
-0.4299999999999926 2.2150000000000034 -1.9099999999999966 0 0 0
-0.4200000000000017 2.1650000000000063 -0.980000000000004 35 223 6
-0.41499999999999204 2.1599999999999966 -0.9249999999999972 0 0 0
-0.394999999999996 2.055000000000007 -0.8849999999999909 0 0 0
-0.39000000000000057 2.030000000000001 -0.8349999999999937 0 0 0
-0.39000000000000057 2.0349999999999966 -0.789999999999992 0 0 0
-0.3999999999999915 2.0799999999999983 -0.730000000000004 0 0 0
-0.394999999999996 2.049999999999997 -0.6850000000000023 0 0 0
-0.394999999999996 2.0649999999999977 -0.6349999999999909 0 0 0
-0.4299999999999926 2.25 -2.3900000000000006 35 223 6
-0.42499999999999716 2.2250000000000085 -2.299999999999997 0 0 0
-0.41499999999999204 2.1650000000000063 -1.3400000000000034 35 223 6
-0.42499999999999716 2.210000000000008 -2.2249999999999943 0 0 0
-0.42499999999999716 2.219999999999999 -1.2950000000000017 35 223 6
-0.41499999999999204 2.1700000000000017 -2.1400000000000006 0 0 0
-0.4200000000000017 2.1899999999999977 -2.0849999999999937 0 0 0
-0.42499999999999716 2.230000000000004 -2.039999999999992 0 0 0
-0.4299999999999926 2.240000000000009 -1.9849999999999994 0 0 0
-0.42499999999999716 2.219999999999999 -1.914999999999992 0 0 0
-0.4099999999999966 2.1599999999999966 -0.980000000000004 35 223 6
-0.41499999999999204 2.1650000000000063 -0.9249999999999972 0 0 0
-0.394999999999996 2.0700000000000074 -0.8849999999999909 0 0 0
-0.39000000000000057 2.0349999999999966 -0.8349999999999937 0 0 0
-0.39000000000000057 2.0400000000000063 -0.7849999999999966 0 0 0
-0.394999999999996 2.085000000000008 -0.730000000000004 0 0 0
-0.39000000000000057 2.0649999999999977 -0.6850000000000023 0 0 0
-0.394999999999996 2.0700000000000074 -0.6349999999999909 0 0 0
-0.42499999999999716 2.2450000000000045 -2.384999999999991 35 223 6
-0.4200000000000017 2.210000000000008 -2.2950000000000017 0 0 0
-0.41499999999999204 2.174999999999997 -1.3400000000000034 35 223 6
-0.4200000000000017 2.2150000000000034 -2.230000000000004 0 0 0
-0.41499999999999204 2.1899999999999977 -1.289999999999992 35 223 6
-0.4099999999999966 2.174999999999997 -2.1400000000000006 0 0 0
-0.41499999999999204 2.200000000000003 -2.0900000000000034 0 0 0
-3.0150000000000006 15.920000000000002 -2.164999999999992 35 223 6
-0.42499999999999716 2.2349999999999994 -2.0450000000000017 0 0 0
-0.42499999999999716 2.2450000000000045 -1.9849999999999994 0 0 0
-0.4200000000000017 2.2250000000000085 -1.914999999999992 0 0 0
-0.4099999999999966 2.1650000000000063 -0.980000000000004 35 223 6
-0.4099999999999966 2.1599999999999966 -0.9249999999999972 0 0 0
-0.39000000000000057 2.0700000000000074 -0.8849999999999909 0 0 0
-0.37999999999999545 2.019999999999996 -0.8400000000000034 0 0 0
-0.3849999999999909 2.0349999999999966 -0.789999999999992 0 0 0
-0.39000000000000057 2.075000000000003 -0.7349999999999994 0 0 0
-0.39000000000000057 2.075000000000003 -0.6850000000000023 0 0 0
-0.39000000000000057 2.0649999999999977 -0.6349999999999909 0 0 0
-0.4200000000000017 2.2450000000000045 -2.384999999999991 35 223 6
-0.41499999999999204 2.219999999999999 -2.299999999999997 0 0 0
-0.40500000000000114 2.1700000000000017 -1.3400000000000034 35 223 6
-0.41499999999999204 2.2250000000000085 -2.2349999999999994 0 0 0
-0.41499999999999204 2.219999999999999 -1.2950000000000017 35 223 6
-0.4099999999999966 2.174999999999997 -2.1400000000000006 0 0 0
-0.4099999999999966 2.200000000000003 -2.0900000000000034 0 0 0
-2.9849999999999994 15.950000000000003 -2.164999999999992 35 223 6
-0.4200000000000017 2.2450000000000045 -2.0450000000000017 0 0 0
-0.4200000000000017 2.2549999999999955 -1.9899999999999949 0 0 0
-0.41499999999999204 2.2250000000000085 -1.914999999999992 0 0 0
-0.40500000000000114 2.1650000000000063 -0.980000000000004 35 223 6
-0.40500000000000114 2.1650000000000063 -0.9249999999999972 0 0 0
-0.3849999999999909 2.0700000000000074 -0.8849999999999909 0 0 0
-0.37999999999999545 2.049999999999997 -0.8349999999999937 0 0 0
-0.37999999999999545 2.0400000000000063 -0.7849999999999966 0 0 0
-0.39000000000000057 2.0900000000000034 -0.730000000000004 0 0 0
-0.3849999999999909 2.075000000000003 -0.6850000000000023 0 0 0
-0.3849999999999909 2.085000000000008 -0.6299999999999955 0 0 0
-0.4200000000000017 2.260000000000005 -2.3900000000000006 0 0 0
-0.41499999999999204 2.2349999999999994 -2.3049999999999926 0 0 0
-0.40500000000000114 2.180000000000007 -1.3400000000000034 35 223 6
-0.4099999999999966 2.2250000000000085 -2.2349999999999994 0 0 0
-0.40500000000000114 2.200000000000003 -1.289999999999992 35 223 6
-0.40500000000000114 2.180000000000007 -2.1400000000000006 0 0 0
-0.4099999999999966 2.2049999999999983 -2.0900000000000034 0 0 0
-3.1099999999999994 16.825000000000003 -2.2249999999999943 35 223 6
-0.41499999999999204 2.2450000000000045 -2.0450000000000017 0 0 0
-0.41499999999999204 2.260000000000005 -1.9899999999999949 0 0 0
-0.4099999999999966 2.230000000000004 -1.914999999999992 0 0 0
-0.3999999999999915 2.174999999999997 -0.980000000000004 0 0 0
-0.40500000000000114 2.1899999999999977 -0.9249999999999972 0 0 0
-0.37999999999999545 2.0649999999999977 -0.8849999999999909 0 0 0
-0.37999999999999545 2.0600000000000023 -0.8349999999999937 0 0 0
-0.375 2.0450000000000017 -0.7849999999999966 0 0 0
-0.3849999999999909 2.094999999999999 -0.730000000000004 0 0 0
-0.37999999999999545 2.0700000000000074 -0.6850000000000023 0 0 0
-0.37999999999999545 2.085000000000008 -0.6299999999999955 0 0 0
-0.41499999999999204 2.2549999999999955 -2.3900000000000006 35 223 6
-0.4099999999999966 2.230000000000004 -2.3049999999999926 0 0 0
-0.3999999999999915 2.174999999999997 -1.3400000000000034 35 223 6
-0.40500000000000114 2.2250000000000085 -2.230000000000004 0 0 0
-0.40500000000000114 2.200000000000003 -1.289999999999992 35 223 6
-0.394999999999996 2.174999999999997 -2.1400000000000006 0 0 0
-0.40500000000000114 2.2150000000000034 -2.094999999999999 0 0 0
-2.8799999999999955 15.775000000000006 -2.1499999999999915 35 223 6
-0.4099999999999966 2.2450000000000045 -2.0450000000000017 0 0 0
-0.4099999999999966 2.260000000000005 -1.9899999999999949 0 0 0
-2.944999999999993 16.159999999999997 -1.4099999999999966 35 223 6
-0.40500000000000114 2.2349999999999994 -1.914999999999992 0 0 0
-0.3999999999999915 2.1850000000000023 -0.980000000000004 0 0 0
-0.394999999999996 2.174999999999997 -0.9249999999999972 0 0 0
-0.375 2.075000000000003 -0.8849999999999909 0 0 0
-0.375 2.0649999999999977 -0.8349999999999937 0 0 0
-0.37000000000000455 2.0450000000000017 -0.7849999999999966 0 0 0
-0.37999999999999545 2.105000000000004 -0.730000000000004 0 0 0
-0.375 2.0799999999999983 -0.6799999999999926 0 0 0
-0.375 2.085000000000008 -0.6299999999999955 0 0 0
-0.4099999999999966 2.269999999999996 -2.394999999999996 0 0 0
-0.40500000000000114 2.2349999999999994 -2.3049999999999926 0 0 0
-0.394999999999996 2.174999999999997 -1.3400000000000034 35 223 6
-0.40500000000000114 2.2349999999999994 -2.2349999999999994 0 0 0
-0.3999999999999915 2.210000000000008 -1.289999999999992 35 223 6
-0.394999999999996 2.1899999999999977 -2.1499999999999915 0 0 0
-0.3999999999999915 2.210000000000008 -2.094999999999999 0 0 0
-0.40500000000000114 2.2549999999999955 -2.049999999999997 0 0 0
-0.4099999999999966 2.2650000000000006 -1.9899999999999949 0 0 0
-0.40500000000000114 2.2450000000000045 -1.9200000000000017 0 0 0
-0.394999999999996 2.1850000000000023 -0.980000000000004 0 0 0
-0.394999999999996 2.1899999999999977 -0.9249999999999972 0 0 0
-0.375 2.075000000000003 -0.8849999999999909 0 0 0
-0.37000000000000455 2.0649999999999977 -0.8349999999999937 0 0 0
-0.37000000000000455 2.049999999999997 -0.7849999999999966 0 0 0
-0.37999999999999545 2.105000000000004 -0.730000000000004 0 0 0
-0.375 2.0900000000000034 -0.6799999999999926 0 0 0
-0.37000000000000455 2.075000000000003 -0.6349999999999909 0 0 0
-0.40500000000000114 2.2750000000000057 -2.3999999999999915 0 0 0
-0.3999999999999915 2.240000000000009 -2.3100000000000023 0 0 0
-0.39000000000000057 2.1700000000000017 -1.3400000000000034 35 223 6
-0.3999999999999915 2.240000000000009 -2.239999999999995 0 0 0
-0.394999999999996 2.2250000000000085 -1.2950000000000017 35 223 6
-0.3849999999999909 2.1700000000000017 -2.134999999999991 0 0 0
-0.394999999999996 2.219999999999999 -2.094999999999999 0 0 0
-0.40500000000000114 2.260000000000005 -2.0549999999999926 0 0 0
-0.40500000000000114 2.269999999999996 -1.9899999999999949 0 0 0
-0.3999999999999915 2.2450000000000045 -1.9200000000000017 0 0 0
-0.39000000000000057 2.1850000000000023 -0.980000000000004 0 0 0
-0.39000000000000057 2.1950000000000074 -0.9249999999999972 0 0 0
-0.37000000000000455 2.0900000000000034 -0.8799999999999955 0 0 0
-0.3649999999999949 2.0700000000000074 -0.8349999999999937 0 0 0
-0.3649999999999949 2.049999999999997 -0.7849999999999966 0 0 0
-0.375 2.1099999999999994 -0.730000000000004 0 0 0
-0.37000000000000455 2.085000000000008 -0.6799999999999926 0 0 0
-0.3649999999999949 2.0799999999999983 -0.6299999999999955 0 0 0
-0.3999999999999915 2.2750000000000057 -2.3999999999999915 0 0 0
-0.394999999999996 2.2450000000000045 -2.3100000000000023 0 0 0
-0.37999999999999545 2.1650000000000063 -1.3400000000000034 35 223 6
-0.394999999999996 2.25 -2.2450000000000045 0 0 0
-0.39000000000000057 2.219999999999999 -1.2950000000000017 35 223 6
-0.3849999999999909 2.1850000000000023 -2.144999999999996 0 0 0
-0.39000000000000057 2.219999999999999 -2.0999999999999943 0 0 0
-2.825000000000003 16.08 -2.1700000000000017 35 223 6
-0.3999999999999915 2.2650000000000006 -2.0549999999999926 0 0 0
-0.3999999999999915 2.2750000000000057 -1.9950000000000045 0 0 0
-2.569999999999993 14.644999999999996 -1.375 35 223 6
-0.394999999999996 2.2549999999999955 -1.9249999999999972 0 0 0
-0.3849999999999909 2.1899999999999977 -0.980000000000004 0 0 0
-0.3849999999999909 2.200000000000003 -0.9249999999999972 0 0 0
-0.3649999999999949 2.094999999999999 -0.8799999999999955 0 0 0
-0.3649999999999949 2.075000000000003 -0.8349999999999937 0 0 0
-0.35999999999999943 2.075000000000003 -0.7849999999999966 0 0 0
-0.3649999999999949 2.105000000000004 -0.730000000000004 0 0 0
-0.9549999999999983 5.484999999999999 -2.2150000000000034 35 223 6
-0.3649999999999949 2.0799999999999983 -0.6850000000000023 0 0 0
-0.3649999999999949 2.094999999999999 -0.6299999999999955 0 0 0
-0.3999999999999915 2.280000000000001 -2.3999999999999915 0 0 0
-0.39000000000000057 2.25 -2.3100000000000023 0 0 0
-0.3849999999999909 2.1950000000000074 -1.3449999999999989 35 223 6
-0.39000000000000057 2.25 -2.2450000000000045 0 0 0
-0.3849999999999909 2.210000000000008 -1.289999999999992 35 223 6
-0.3849999999999909 2.2049999999999983 -2.155000000000001 0 0 0
-0.39000000000000057 2.230000000000004 -2.0999999999999943 0 0 0
-2.825000000000003 16.245000000000005 -2.1850000000000023 35 223 6
-0.394999999999996 2.2750000000000057 -2.0549999999999926 0 0 0
-0.394999999999996 2.280000000000001 -1.9950000000000045 0 0 0
-0.39000000000000057 2.260000000000005 -1.9249999999999972 0 0 0
-0.37999999999999545 2.1950000000000074 -0.980000000000004 0 0 0
-0.37999999999999545 2.1899999999999977 -0.9249999999999972 0 0 0
-0.35999999999999943 2.085000000000008 -0.8799999999999955 0 0 0
-0.35999999999999943 2.0799999999999983 -0.8349999999999937 0 0 0
-0.35999999999999943 2.075000000000003 -0.7849999999999966 0 0 0
-0.3649999999999949 2.105000000000004 -0.730000000000004 0 0 0
-0.9399999999999977 5.465000000000003 -2.2099999999999937 35 223 6
-0.35999999999999943 2.085000000000008 -0.6799999999999926 0 0 0
-0.35999999999999943 2.0900000000000034 -0.6299999999999955 0 0 0
-0.394999999999996 2.2849999999999966 -2.405000000000001 0 0 0
-0.39000000000000057 2.2549999999999955 -2.3149999999999977 0 0 0
-0.37999999999999545 2.1950000000000074 -1.3449999999999989 35 223 6
-0.39000000000000057 2.260000000000005 -2.25 0 0 0
-0.3849999999999909 2.230000000000004 -1.2950000000000017 35 223 6
-0.37999999999999545 2.200000000000003 -2.1499999999999915 0 0 0
-0.3849999999999909 2.230000000000004 -2.0999999999999943 0 0 0
-2.7450000000000045 16.015 -2.164999999999992 35 223 6
-0.39000000000000057 2.269999999999996 -2.0549999999999926 0 0 0
-0.39000000000000057 2.2849999999999966 -2.0 0 0 0
-0.39000000000000057 2.2650000000000006 -1.9249999999999972 0 0 0
-0.375 2.2049999999999983 -0.980000000000004 0 0 0
-0.37999999999999545 2.2150000000000034 -0.9249999999999972 0 0 0
-0.35999999999999943 2.094999999999999 -0.8799999999999955 0 0 0
-0.355000000000004 2.0799999999999983 -0.8349999999999937 0 0 0
-0.3499999999999943 2.0700000000000074 -0.7849999999999966 0 0 0
-0.35999999999999943 2.1200000000000045 -0.7249999999999943 0 0 0
-0.355000000000004 2.0900000000000034 -0.6799999999999926 0 0 0
-0.35999999999999943 2.1200000000000045 -0.625 0 0 0
-0.39000000000000057 2.2950000000000017 -2.4099999999999966 0 0 0
-0.3849999999999909 2.2549999999999955 -2.3149999999999977 0 0 0
-0.375 2.200000000000003 -1.3449999999999989 35 223 6
-0.37999999999999545 2.25 -2.2450000000000045 0 0 0
-0.375 2.2150000000000034 -1.289999999999992 35 223 6
-0.3849999999999909 2.2750000000000057 -2.1899999999999977 0 0 0
-0.37999999999999545 2.240000000000009 -2.105000000000004 0 0 0
-2.719999999999999 16.070000000000007 -2.1700000000000017 35 223 6
-0.3849999999999909 2.2750000000000057 -2.0549999999999926 0 0 0
-0.3849999999999909 2.2900000000000063 -2.0 0 0 0
-0.3849999999999909 2.2650000000000006 -1.9299999999999926 0 0 0
-0.375 2.210000000000008 -0.980000000000004 0 0 0
-0.375 2.210000000000008 -0.9249999999999972 0 0 0
-0.355000000000004 2.094999999999999 -0.8799999999999955 0 0 0
-0.3499999999999943 2.085000000000008 -0.8349999999999937 0 0 0
-0.3499999999999943 2.075000000000003 -0.7849999999999966 0 0 0
-0.355000000000004 2.115000000000009 -0.730000000000004 0 0 0
-0.9350000000000023 5.564999999999998 -2.230000000000004 35 223 6
-0.3499999999999943 2.1000000000000085 -0.6799999999999926 0 0 0
-0.355000000000004 2.105000000000004 -0.625 0 0 0
-0.3849999999999909 2.299999999999997 -2.4099999999999966 0 0 0
-0.37999999999999545 2.2650000000000006 -2.319999999999993 0 0 0
-0.37000000000000455 2.210000000000008 -1.3449999999999989 35 223 6
-0.3849999999999909 2.2950000000000017 -2.2650000000000006 0 0 0
-0.375 2.2349999999999994 -1.2950000000000017 35 223 6
-0.3849999999999909 2.2900000000000063 -2.194999999999993 0 0 0
-0.375 2.2450000000000045 -2.105000000000004 0 0 0
-0.37999999999999545 2.280000000000001 -2.0600000000000023 0 0 0
-0.3849999999999909 2.2950000000000017 -2.0 0 0 0
-0.37999999999999545 2.2750000000000057 -1.9299999999999926 0 0 0
-0.37000000000000455 2.2150000000000034 -0.980000000000004 0 0 0
-0.37000000000000455 2.219999999999999 -0.9249999999999972 0 0 0
-0.3499999999999943 2.094999999999999 -0.8799999999999955 0 0 0
-0.3499999999999943 2.105000000000004 -0.8299999999999983 0 0 0
-0.34499999999999886 2.0799999999999983 -0.7849999999999966 0 0 0
-0.3499999999999943 2.1200000000000045 -0.730000000000004 0 0 0
-0.3499999999999943 2.1000000000000085 -0.6799999999999926 0 0 0
-0.3499999999999943 2.1099999999999994 -0.625 0 0 0
-0.37999999999999545 2.2950000000000017 -2.4099999999999966 0 0 0
-0.37999999999999545 2.2950000000000017 -2.3349999999999937 0 0 0
-0.3649999999999949 2.200000000000003 -1.3449999999999989 35 223 6
-0.375 2.2650000000000006 -2.25 0 0 0
-0.375 2.2549999999999955 -1.2950000000000017 35 223 6
-0.37999999999999545 2.3149999999999977 -2.2099999999999937 0 0 0
-0.37000000000000455 2.2450000000000045 -2.105000000000004 0 0 0
-0.375 2.2849999999999966 -2.0600000000000023 0 0 0
-0.37999999999999545 2.299999999999997 -2.0049999999999955 0 0 0
-0.375 2.280000000000001 -1.9350000000000023 0 0 0
-0.3649999999999949 2.210000000000008 -0.980000000000004 0 0 0
-0.3649999999999949 2.230000000000004 -0.9249999999999972 0 0 0
-0.34499999999999886 2.105000000000004 -0.8799999999999955 0 0 0
-0.34499999999999886 2.1000000000000085 -0.8299999999999983 0 0 0
-0.3400000000000034 2.085000000000008 -0.7849999999999966 0 0 0
-0.3499999999999943 2.1299999999999955 -0.7249999999999943 0 0 0
-0.34499999999999886 2.105000000000004 -0.6799999999999926 0 0 0
-0.34499999999999886 2.125 -0.625 0 0 0
-0.375 2.305000000000007 -2.414999999999992 0 0 0
-0.375 2.2950000000000017 -2.3349999999999937 0 0 0
-0.35999999999999943 2.2150000000000034 -1.3449999999999989 35 223 6
-0.375 2.2950000000000017 -2.269999999999996 0 0 0
-0.37000000000000455 2.2650000000000006 -1.2999999999999972 35 223 6
-0.375 2.3149999999999977 -2.2099999999999937 0 0 0
-0.3649999999999949 2.25 -2.1099999999999994 0 0 0
-0.37000000000000455 2.2900000000000063 -2.0649999999999977 0 0 0
-0.37000000000000455 2.2950000000000017 -2.0 0 0 0
-0.37000000000000455 2.2950000000000017 -1.9350000000000023 0 0 0
-0.355000000000004 2.2049999999999983 -0.980000000000004 0 0 0
-0.3649999999999949 2.240000000000009 -0.9249999999999972 0 0 0
-0.3400000000000034 2.115000000000009 -0.8799999999999955 0 0 0
-0.3400000000000034 2.1000000000000085 -0.8299999999999983 0 0 0
-0.33499999999999375 2.0900000000000034 -0.7800000000000011 0 0 0
-0.34499999999999886 2.135000000000005 -0.7249999999999943 0 0 0
-0.3400000000000034 2.1099999999999994 -0.6799999999999926 0 0 0
-0.3400000000000034 2.125 -0.625 0 0 0
-0.37000000000000455 2.305000000000007 -2.414999999999992 0 0 0
-0.37000000000000455 2.305000000000007 -2.3400000000000034 0 0 0
-0.35999999999999943 2.2250000000000085 -1.3449999999999989 35 223 6
-0.37000000000000455 2.299999999999997 -2.269999999999996 0 0 0
-0.3649999999999949 2.2549999999999955 -1.2950000000000017 35 223 6
-0.375 2.3200000000000074 -2.2099999999999937 0 0 0
-0.3649999999999949 2.260000000000005 -2.114999999999995 0 0 0
-0.3649999999999949 2.2849999999999966 -2.0600000000000023 0 0 0
-0.37000000000000455 2.305000000000007 -2.0049999999999955 0 0 0
-0.3649999999999949 2.2849999999999966 -1.9350000000000023 0 0 0
-1.1099999999999994 6.945000000000007 -1.0300000000000011 0 0 0
-0.355000000000004 2.230000000000004 -0.980000000000004 0 0 0
-0.35999999999999943 2.240000000000009 -0.9249999999999972 0 0 0
-0.33499999999999375 2.1099999999999994 -0.8799999999999955 0 0 0
-0.3400000000000034 2.115000000000009 -0.8299999999999983 0 0 0
-0.33499999999999375 2.094999999999999 -0.7800000000000011 0 0 0
-0.3400000000000034 2.1299999999999955 -0.7249999999999943 0 0 0
-0.3299999999999983 2.0799999999999983 -0.6850000000000023 0 0 0
-0.33499999999999375 2.115000000000009 -0.625 0 0 0
-0.3649999999999949 2.3100000000000023 -2.4200000000000017 0 0 0
-0.3649999999999949 2.305000000000007 -2.3400000000000034 0 0 0
-0.3499999999999943 2.2150000000000034 -1.3449999999999989 35 223 6
-0.3649999999999949 2.3100000000000023 -2.2749999999999915 0 0 0
-0.35999999999999943 2.269999999999996 -1.2999999999999972 35 223 6
-0.3649999999999949 2.3200000000000074 -2.2099999999999937 0 0 0
-0.35999999999999943 2.2650000000000006 -2.114999999999995 0 0 0
-0.3649999999999949 2.2950000000000017 -2.0649999999999977 0 0 0
-0.3649999999999949 2.3149999999999977 -2.009999999999991 0 0 0
-0.3649999999999949 2.299999999999997 -1.9399999999999977 0 0 0
-0.3499999999999943 2.230000000000004 -0.980000000000004 0 0 0
-0.355000000000004 2.2450000000000045 -0.9249999999999972 0 0 0
-0.33499999999999375 2.125 -0.8799999999999955 0 0 0
-0.33499999999999375 2.115000000000009 -0.8299999999999983 0 0 0
-0.3299999999999983 2.1000000000000085 -0.7800000000000011 0 0 0
-0.33499999999999375 2.135000000000005 -0.7249999999999943 0 0 0
-0.33499999999999375 2.125 -0.6749999999999972 0 0 0
-0.3299999999999983 2.115000000000009 -0.625 0 0 0
-0.3649999999999949 2.325000000000003 -2.424999999999997 0 0 0
-0.35999999999999943 2.3149999999999977 -2.344999999999999 0 0 0
-0.34499999999999886 2.219999999999999 -1.3449999999999989 35 223 6
-0.35999999999999943 2.3100000000000023 -2.269999999999996 0 0 0
-0.355000000000004 2.2750000000000057 -1.2999999999999972 35 223 6
-0.35999999999999943 2.3200000000000074 -2.2099999999999937 0 0 0
-0.355000000000004 2.260000000000005 -2.114999999999995 0 0 0
-0.35999999999999943 2.299999999999997 -2.0649999999999977 0 0 0
-0.35999999999999943 2.3149999999999977 -2.009999999999991 0 0 0
-0.35999999999999943 2.305000000000007 -1.9399999999999977 0 0 0
-0.34499999999999886 2.230000000000004 -0.980000000000004 0 0 0
-0.3499999999999943 2.2450000000000045 -0.9249999999999972 0 0 0
-0.3299999999999983 2.125 -0.8799999999999955 0 0 0
-0.3299999999999983 2.115000000000009 -0.8299999999999983 0 0 0
-0.32500000000000284 2.1000000000000085 -0.7800000000000011 0 0 0
-0.3299999999999983 2.1299999999999955 -0.7249999999999943 0 0 0
-0.3299999999999983 2.1299999999999955 -0.6749999999999972 0 0 0
-0.3299999999999983 2.125 -0.625 0 0 0
-0.35999999999999943 2.3200000000000074 -2.424999999999997 0 0 0
-0.355000000000004 2.3100000000000023 -2.344999999999999 0 0 0
-0.34499999999999886 2.2250000000000085 -1.3449999999999989 35 223 6
-0.355000000000004 2.3149999999999977 -2.2749999999999915 0 0 0
-0.355000000000004 2.2900000000000063 -1.2999999999999972 35 223 6
-0.355000000000004 2.3200000000000074 -2.2099999999999937 0 0 0
-0.34499999999999886 2.2549999999999955 -2.1099999999999994 0 0 0
-0.355000000000004 2.3100000000000023 -2.069999999999993 0 0 0
-0.355000000000004 2.3200000000000074 -2.009999999999991 0 0 0
-0.355000000000004 2.305000000000007 -1.9399999999999977 0 0 0
-1.0349999999999966 6.75 -1.0300000000000011 0 0 0
-0.3400000000000034 2.230000000000004 -0.980000000000004 0 0 0
-0.34499999999999886 2.2450000000000045 -0.9249999999999972 0 0 0
-0.32500000000000284 2.1200000000000045 -0.8799999999999955 0 0 0
-0.32500000000000284 2.1200000000000045 -0.8299999999999983 0 0 0
-0.3199999999999932 2.1099999999999994 -0.7800000000000011 0 0 0
-0.3299999999999983 2.1500000000000057 -0.7249999999999943 0 0 0
-0.32500000000000284 2.1400000000000006 -0.6749999999999972 0 0 0
-0.32500000000000284 2.135000000000005 -0.625 0 0 0
-0.355000000000004 2.3299999999999983 -2.424999999999997 0 0 0
-0.3499999999999943 2.3149999999999977 -2.344999999999999 0 0 0
-0.3400000000000034 2.240000000000009 -1.3499999999999943 35 223 6
-0.34499999999999886 2.2849999999999966 -2.259999999999991 0 0 0
-0.3499999999999943 2.2900000000000063 -1.2999999999999972 35 223 6
-0.3499999999999943 2.2950000000000017 -2.194999999999993 0 0 0
-0.34499999999999886 2.260000000000005 -2.1099999999999994 0 0 0
-0.3499999999999943 2.305000000000007 -2.069999999999993 0 0 0
-0.3499999999999943 2.325000000000003 -2.0150000000000006 0 0 0
-0.3499999999999943 2.3100000000000023 -1.9449999999999932 0 0 0
-0.3400000000000034 2.2349999999999994 -0.9749999999999943 0 0 0
-0.3400000000000034 2.2450000000000045 -0.9249999999999972 0 0 0
-0.3199999999999932 2.135000000000005 -0.8799999999999955 0 0 0
-0.3199999999999932 2.135000000000005 -0.8299999999999983 0 0 0
-0.3149999999999977 2.1099999999999994 -0.7800000000000011 0 0 0
-0.32500000000000284 2.1500000000000057 -0.7249999999999943 0 0 0
-0.32500000000000284 2.1500000000000057 -0.6749999999999972 0 0 0
-0.3199999999999932 2.1299999999999955 -0.625 0 0 0
-0.3499999999999943 2.3299999999999983 -2.4299999999999926 0 0 0
-0.3499999999999943 2.325000000000003 -2.3499999999999943 0 0 0
-0.33499999999999375 2.230000000000004 -1.3449999999999989 35 223 6
-0.34499999999999886 2.2950000000000017 -2.2650000000000006 0 0 0
-0.34499999999999886 2.2849999999999966 -1.2999999999999972 35 223 6
-0.34499999999999886 2.305000000000007 -2.200000000000003 0 0 0
-0.3400000000000034 2.260000000000005 -2.1099999999999994 0 0 0
-0.34499999999999886 2.3149999999999977 -2.075000000000003 0 0 0
-0.34499999999999886 2.325000000000003 -2.0150000000000006 0 0 0
-0.34499999999999886 2.3100000000000023 -1.9399999999999977 0 0 0
-0.3299999999999983 2.2250000000000085 -0.980000000000004 0 0 0
-0.33499999999999375 2.25 -0.9249999999999972 0 0 0
-0.3149999999999977 2.1299999999999955 -0.8799999999999955 0 0 0
-0.3149999999999977 2.1200000000000045 -0.8299999999999983 0 0 0
-0.3100000000000023 2.105000000000004 -0.7800000000000011 0 0 0
-0.3199999999999932 2.1599999999999966 -0.7249999999999943 0 0 0
-0.3199999999999932 2.1500000000000057 -0.6749999999999972 0 0 0
-0.8199999999999932 5.555000000000007 -2.0900000000000034 0 0 0
-0.3149999999999977 2.1400000000000006 -0.625 0 0 0
-0.34499999999999886 2.3400000000000034 -2.4350000000000023 0 0 0
-0.34499999999999886 2.3299999999999983 -2.355000000000004 0 0 0
-0.3299999999999983 2.25 -1.3499999999999943 0 0 0
-0.3400000000000034 2.3100000000000023 -2.269999999999996 0 0 0
-0.33499999999999375 2.280000000000001 -1.2999999999999972 0 0 0
-0.3400000000000034 2.3100000000000023 -2.200000000000003 0 0 0
-0.33499999999999375 2.2750000000000057 -2.1200000000000045 0 0 0
-0.3400000000000034 2.325000000000003 -2.075000000000003 0 0 0
-0.34499999999999886 2.335000000000008 -2.0150000000000006 0 0 0
-0.3400000000000034 2.3200000000000074 -1.9449999999999932 0 0 0
-0.3299999999999983 2.2549999999999955 -0.9749999999999943 0 0 0
-0.3299999999999983 2.25 -0.9249999999999972 0 0 0
-0.3149999999999977 2.144999999999996 -0.8799999999999955 0 0 0
-0.3100000000000023 2.125 -0.8299999999999983 0 0 0
-0.3100000000000023 2.125 -0.7800000000000011 0 0 0
-0.3149999999999977 2.1650000000000063 -0.7249999999999943 0 0 0
-0.8049999999999926 5.510000000000005 -2.2150000000000034 0 0 0
-0.3149999999999977 2.155000000000001 -0.6700000000000017 0 0 0
-0.3149999999999977 2.144999999999996 -0.6200000000000045 0 0 0
-0.3400000000000034 2.3400000000000034 -2.4299999999999926 0 0 0
-0.3400000000000034 2.335000000000008 -2.355000000000004 0 0 0
-0.3299999999999983 2.2650000000000006 -1.3499999999999943 0 0 0
-0.33499999999999375 2.3100000000000023 -2.269999999999996 0 0 0
-0.3299999999999983 2.280000000000001 -1.2999999999999972 0 0 0
-0.33499999999999375 2.3100000000000023 -2.2049999999999983 0 0 0
-0.3299999999999983 2.269999999999996 -2.114999999999995 0 0 0
-2.405000000000001 16.590000000000003 -2.200000000000003 0 0 0
-0.33499999999999375 2.325000000000003 -2.075000000000003 0 0 0
-0.3400000000000034 2.335000000000008 -2.0150000000000006 0 0 0
-0.33499999999999375 2.325000000000003 -1.9449999999999932 0 0 0
-0.32500000000000284 2.2549999999999955 -0.9749999999999943 0 0 0
-0.32500000000000284 2.2450000000000045 -0.9249999999999972 0 0 0
-0.3100000000000023 2.1400000000000006 -0.8799999999999955 0 0 0
-0.3049999999999926 2.1299999999999955 -0.8299999999999983 0 0 0
-0.3049999999999926 2.125 -0.7800000000000011 0 0 0
-0.3100000000000023 2.1599999999999966 -0.7249999999999943 0 0 0
-0.3100000000000023 2.1599999999999966 -0.6700000000000017 0 0 0
-0.3100000000000023 2.144999999999996 -0.6200000000000045 0 0 0
-0.33499999999999375 2.344999999999999 -2.4350000000000023 0 0 0
-0.33499999999999375 2.335000000000008 -2.355000000000004 0 0 0
-0.32500000000000284 2.2549999999999955 -1.3499999999999943 0 0 0
-0.3299999999999983 2.3149999999999977 -2.269999999999996 0 0 0
-0.32500000000000284 2.2849999999999966 -1.2999999999999972 0 0 0
-0.3299999999999983 2.305000000000007 -2.200000000000003 0 0 0
-0.32500000000000284 2.280000000000001 -2.1200000000000045 0 0 0
-0.33499999999999375 2.335000000000008 -2.0799999999999983 0 0 0
-0.33499999999999375 2.3500000000000085 -2.019999999999996 0 0 0
-0.3299999999999983 2.3299999999999983 -1.9500000000000028 0 0 0
-0.3199999999999932 2.2549999999999955 -0.9749999999999943 0 0 0
-0.3199999999999932 2.2549999999999955 -0.9249999999999972 0 0 0
-0.3049999999999926 2.155000000000001 -0.8799999999999955 0 0 0
-0.3049999999999926 2.1400000000000006 -0.8299999999999983 0 0 0
-0.3049999999999926 2.1400000000000006 -0.7749999999999915 0 0 0
-0.3100000000000023 2.180000000000007 -0.7199999999999989 0 0 0
-0.3049999999999926 2.1650000000000063 -0.6700000000000017 0 0 0
-0.3049999999999926 2.155000000000001 -0.6200000000000045 0 0 0
-0.33499999999999375 2.355000000000004 -2.4399999999999977 0 0 0
-0.3299999999999983 2.3400000000000034 -2.355000000000004 0 0 0
-0.3149999999999977 2.240000000000009 -1.3499999999999943 0 0 0
-0.32500000000000284 2.3200000000000074 -2.2749999999999915 0 0 0
-0.3199999999999932 2.2849999999999966 -1.2999999999999972 0 0 0
-0.32500000000000284 2.3149999999999977 -2.2049999999999983 0 0 0
-0.8849999999999909 6.290000000000006 -1.6200000000000045 0 0 0
-0.3199999999999932 2.2750000000000057 -2.114999999999995 0 0 0
-0.3299999999999983 2.3400000000000034 -2.0799999999999983 0 0 0
-0.3299999999999983 2.344999999999999 -2.019999999999996 0 0 0
-0.32500000000000284 2.3299999999999983 -1.9500000000000028 0 0 0
-0.3199999999999932 2.280000000000001 -1.8700000000000045 0 0 0
-0.3199999999999932 2.269999999999996 -0.9749999999999943 0 0 0
-0.3199999999999932 2.269999999999996 -0.9249999999999972 0 0 0
-0.29999999999999716 2.1599999999999966 -0.8799999999999955 0 0 0
-0.29999999999999716 2.1500000000000057 -0.8250000000000028 0 0 0
-0.2950000000000017 2.1299999999999955 -0.7800000000000011 0 0 0
-0.3049999999999926 2.174999999999997 -0.7199999999999989 0 0 0
-0.29999999999999716 2.1700000000000017 -0.6700000000000017 0 0 0
-0.29999999999999716 2.155000000000001 -0.6200000000000045 0 0 0
-0.3299999999999983 2.355000000000004 -2.4399999999999977 0 0 0
-0.32500000000000284 2.3400000000000034 -2.3599999999999994 0 0 0
-0.3100000000000023 2.230000000000004 -1.3449999999999989 0 0 0
-0.3199999999999932 2.3100000000000023 -2.269999999999996 0 0 0
-0.3199999999999932 2.2900000000000063 -1.2999999999999972 0 0 0
-0.3199999999999932 2.3149999999999977 -2.2049999999999983 0 0 0
-0.875 6.314999999999998 -1.625 0 0 0
-0.3100000000000023 2.25 -2.105000000000004 0 0 0
-0.32500000000000284 2.335000000000008 -2.0799999999999983 0 0 0
-0.32500000000000284 2.355000000000004 -2.019999999999996 0 0 0
-0.3199999999999932 2.335000000000008 -1.9500000000000028 0 0 0
-0.3199999999999932 2.335000000000008 -1.8900000000000006 0 0 0
-0.3100000000000023 2.260000000000005 -0.9749999999999943 0 0 0
-0.3100000000000023 2.2549999999999955 -0.9249999999999972 0 0 0
-0.2950000000000017 2.1599999999999966 -0.8799999999999955 0 0 0
-0.2950000000000017 2.1500000000000057 -0.8250000000000028 0 0 0
-0.2950000000000017 2.1299999999999955 -0.7800000000000011 0 0 0
-0.29999999999999716 2.174999999999997 -0.7199999999999989 0 0 0
-0.2950000000000017 2.1650000000000063 -0.6700000000000017 0 0 0
-0.2950000000000017 2.1650000000000063 -0.6200000000000045 0 0 0
-0.3199999999999932 2.355000000000004 -2.4399999999999977 0 0 0
-0.3199999999999932 2.3500000000000085 -2.3599999999999994 0 0 0
-0.3049999999999926 2.240000000000009 -1.3499999999999943 0 0 0
-0.3149999999999977 2.325000000000003 -2.2749999999999915 0 0 0
-0.3149999999999977 2.3149999999999977 -1.3049999999999926 0 0 0
-0.3149999999999977 2.3200000000000074 -2.2049999999999983 0 0 0
-0.8499999999999943 6.219999999999999 -1.6149999999999949 0 0 0
-0.3049999999999926 2.2549999999999955 -2.1099999999999994 0 0 0
-0.3199999999999932 2.3400000000000034 -2.0799999999999983 0 0 0
-0.3199999999999932 2.355000000000004 -2.0249999999999915 0 0 0
-0.3199999999999932 2.3400000000000034 -1.9500000000000028 0 0 0
-0.3149999999999977 2.3149999999999977 -1.8799999999999955 0 0 0
-0.3049999999999926 2.2650000000000006 -0.9749999999999943 0 0 0
-0.3049999999999926 2.260000000000005 -0.9249999999999972 0 0 0
-0.2950000000000017 2.1650000000000063 -0.875 0 0 0
-0.28999999999999204 2.1500000000000057 -0.8250000000000028 0 0 0
-0.28999999999999204 2.144999999999996 -0.7749999999999915 0 0 0
-0.2950000000000017 2.180000000000007 -0.7199999999999989 0 0 0
-0.28999999999999204 2.1700000000000017 -0.6700000000000017 0 0 0
-0.28999999999999204 2.1700000000000017 -0.6200000000000045 0 0 0
-0.3199999999999932 2.365000000000009 -2.444999999999993 0 0 0
-0.3149999999999977 2.355000000000004 -2.364999999999995 0 0 0
-0.3049999999999926 2.25 -1.3499999999999943 0 0 0
-0.3149999999999977 2.3299999999999983 -2.280000000000001 0 0 0
-0.3100000000000023 2.299999999999997 -1.2999999999999972 0 0 0
-0.3100000000000023 2.325000000000003 -2.2049999999999983 0 0 0
-0.8400000000000034 6.269999999999996 -1.6200000000000045 0 0 0
-0.3049999999999926 2.2750000000000057 -2.114999999999995 0 0 0
-2.1599999999999966 16.095 -2.164999999999992 0 0 0
-0.3149999999999977 2.3500000000000085 -2.0849999999999937 0 0 0
-0.3149999999999977 2.365000000000009 -2.0249999999999915 0 0 0
-0.3149999999999977 2.344999999999999 -1.9549999999999983 0 0 0
-0.3149999999999977 2.355000000000004 -1.894999999999996 0 0 0
-0.3049999999999926 2.280000000000001 -0.9749999999999943 0 0 0
-0.29999999999999716 2.2650000000000006 -0.9249999999999972 0 0 0
-0.28999999999999204 2.1650000000000063 -0.875 0 0 0
-0.2849999999999966 2.155000000000001 -0.8250000000000028 0 0 0
-0.2849999999999966 2.144999999999996 -0.7749999999999915 0 0 0
-0.28999999999999204 2.174999999999997 -0.7199999999999989 0 0 0
-0.28999999999999204 2.1700000000000017 -0.6700000000000017 0 0 0
-0.28999999999999204 2.174999999999997 -0.6149999999999949 0 0 0
-0.3149999999999977 2.3700000000000045 -2.450000000000003 0 0 0
-0.3100000000000023 2.355000000000004 -2.364999999999995 0 0 0
-0.29999999999999716 2.260000000000005 -1.3499999999999943 0 0 0
-0.3100000000000023 2.335000000000008 -2.280000000000001 0 0 0
-0.3049999999999926 2.299999999999997 -1.2999999999999972 0 0 0
-0.3100000000000023 2.3299999999999983 -2.2099999999999937 0 0 0
-0.29999999999999716 2.269999999999996 -2.114999999999995 0 0 0
-2.144999999999996 16.254999999999995 -2.174999999999997 0 0 0
-0.3100000000000023 2.355000000000004 -2.0900000000000034 0 0 0
-0.3100000000000023 2.3599999999999994 -2.0249999999999915 0 0 0
-0.3100000000000023 2.3500000000000085 -1.9549999999999983 0 0 0
-0.3100000000000023 2.3500000000000085 -1.894999999999996 0 0 0
-0.29999999999999716 2.269999999999996 -0.9749999999999943 0 0 0
-0.2950000000000017 2.260000000000005 -0.9249999999999972 0 0 0
-0.2849999999999966 2.1650000000000063 -0.875 0 0 0
-0.2849999999999966 2.1700000000000017 -0.8250000000000028 0 0 0
-0.28000000000000114 2.144999999999996 -0.7749999999999915 0 0 0
-0.2849999999999966 2.1899999999999977 -0.7199999999999989 0 0 0
-0.2849999999999966 2.1899999999999977 -0.664999999999992 0 0 0
-0.2849999999999966 2.174999999999997 -0.6149999999999949 0 0 0
-0.3100000000000023 2.375 -2.450000000000003 0 0 0
-0.7349999999999994 5.644999999999996 -1.9650000000000034 0 0 0
-0.3100000000000023 2.365000000000009 -2.3700000000000045 0 0 0
-0.2950000000000017 2.25 -1.3499999999999943 0 0 0
-0.3049999999999926 2.335000000000008 -2.2849999999999966 0 0 0
-0.29999999999999716 2.2950000000000017 -1.2999999999999972 0 0 0
-0.3049999999999926 2.335000000000008 -2.2099999999999937 0 0 0
-0.2950000000000017 2.2750000000000057 -2.114999999999995 0 0 0
-0.3049999999999926 2.355000000000004 -2.0900000000000034 0 0 0
-0.3049999999999926 2.3700000000000045 -2.030000000000001 0 0 0
-0.3049999999999926 2.3500000000000085 -1.9549999999999983 0 0 0
-0.3049999999999926 2.355000000000004 -1.894999999999996 0 0 0
-0.2950000000000017 2.280000000000001 -0.9749999999999943 0 0 0
-0.28999999999999204 2.260000000000005 -0.9249999999999972 0 0 0
-0.28000000000000114 2.174999999999997 -0.875 0 0 0
-0.28000000000000114 2.1599999999999966 -0.8250000000000028 0 0 0
-0.2749999999999915 2.144999999999996 -0.7749999999999915 0 0 0
-0.28000000000000114 2.200000000000003 -0.7199999999999989 0 0 0
-0.28000000000000114 2.1700000000000017 -0.6700000000000017 0 0 0
-0.28000000000000114 2.180000000000007 -0.6149999999999949 0 0 0
-0.3049999999999926 2.3799999999999955 -2.450000000000003 0 0 0
-0.3049999999999926 2.3700000000000045 -2.3700000000000045 0 0 0
-0.2950000000000017 2.299999999999997 -1.355000000000004 0 0 0
-0.29999999999999716 2.3400000000000034 -2.2849999999999966 0 0 0
-0.29999999999999716 2.3400000000000034 -1.3049999999999926 0 0 0
-0.29999999999999716 2.3400000000000034 -2.2150000000000034 0 0 0
-0.7599999999999909 5.935000000000002 -1.5900000000000034 0 0 0
-0.28999999999999204 2.280000000000001 -2.1200000000000045 0 0 0
-0.29999999999999716 2.365000000000009 -2.0900000000000034 0 0 0
-0.29999999999999716 2.3700000000000045 -2.030000000000001 0 0 0
-0.29999999999999716 2.3599999999999994 -1.9599999999999937 0 0 0
-0.29999999999999716 2.3400000000000034 -1.8900000000000006 0 0 0
-0.28999999999999204 2.2750000000000057 -0.9749999999999943 0 0 0
-0.2849999999999966 2.2549999999999955 -0.9249999999999972 0 0 0
-0.2749999999999915 2.1700000000000017 -0.875 0 0 0
-0.2749999999999915 2.1700000000000017 -0.8250000000000028 0 0 0
-0.269999999999996 2.155000000000001 -0.7749999999999915 0 0 0
-0.2749999999999915 2.1950000000000074 -0.7199999999999989 0 0 0
-0.2749999999999915 2.1950000000000074 -0.664999999999992 0 0 0
-0.2749999999999915 2.1950000000000074 -0.6149999999999949 0 0 0
-0.29999999999999716 2.385000000000005 -2.4549999999999983 0 0 0
-0.29999999999999716 2.375 -2.375 0 0 0
-0.2849999999999966 2.2549999999999955 -1.3499999999999943 0 0 0
-0.2950000000000017 2.3500000000000085 -2.289999999999992 0 0 0
-0.28999999999999204 2.2950000000000017 -1.2999999999999972 0 0 0
-0.2950000000000017 2.344999999999999 -2.2150000000000034 0 0 0
-0.7349999999999994 5.859999999999999 -1.5799999999999983 0 0 0
-0.2849999999999966 2.280000000000001 -2.1200000000000045 0 0 0
-0.2950000000000017 2.365000000000009 -2.0900000000000034 0 0 0
-0.29999999999999716 2.3799999999999955 -2.030000000000001 0 0 0
-0.2950000000000017 2.3599999999999994 -1.9599999999999937 0 0 0
-0.2950000000000017 2.3700000000000045 -1.8999999999999915 0 0 0
-0.2849999999999966 2.280000000000001 -0.9749999999999943 0 0 0
-0.28000000000000114 2.2549999999999955 -0.9249999999999972 0 0 0
-0.269999999999996 2.180000000000007 -0.875 0 0 0
-0.269999999999996 2.174999999999997 -0.8250000000000028 0 0 0
-0.269999999999996 2.1650000000000063 -0.7749999999999915 0 0 0
-0.2749999999999915 2.2049999999999983 -0.7199999999999989 0 0 0
-0.269999999999996 2.1899999999999977 -0.664999999999992 0 0 0
-0.269999999999996 2.1899999999999977 -0.6149999999999949 0 0 0
-0.2950000000000017 2.385000000000005 -2.4549999999999983 0 0 0
-0.2950000000000017 2.3799999999999955 -2.375 0 0 0
