ply
format ascii 1.0
element vertex 818
property float x
property float y
property float z
end_header
-1.3921136669506413 -2.314032841606062 -8.043077920895053
-5.226287735356022 2.718266359787758 -21.434759951246537
-2.0285284317455092 -2.636987655588819 -10.26999331673908
-5.503492183555981 3.4010036062145144 -22.401827976047738
-1.8802814707308222 -2.2492702069017376 -9.750147782795153
-5.061064871043099 3.700466819687308 -20.853436568576942
-2.0966614287455645 -2.1379164466421385 -10.506513098753482
-0.01811461977778217 -2.3358839178195168 -3.2779921697683467
-2.3479520453679354 -2.029415855134291 -11.512122620198944
-0.07358924164648695 -2.326563000441479 -3.474043410760178
-2.202757829240782 -1.6580326954612465 -10.997588212629784
-0.13037039233865166 -2.311581785031017 -3.6746928947425648
-3.0804145935814526 -1.746518781991477 -14.100137073044886
-0.2060313363808879 -2.322122182453321 -3.9421678379372587
-4.399196625457508 -1.830214761229328 -18.76189937342247
-0.2879654043112707 -2.3294619558146565 -4.2318043479334575
-9.592248008760544 -2.661444817049238 -37.120613034790225
-0.37104616579900673 -2.3256598385327756 -4.52545469556204
-9.867561012001792 -1.7953214576688306 -38.09067487284211
-0.46381754339828163 -2.322703873646501 -4.853361382854895
-9.855677896984291 -0.8544348037417953 -38.04532260482402
-0.566528262038444 -2.3171165363936432 -5.216390163807616
-4.633888375789954 0.04198104560573686 -19.58480381576189
-0.7020711609630865 -2.3390788372109 -5.695568518569688
-4.844314310483849 0.5467615787981299 -20.32679478218032
-0.8521271164263597 -2.3556459188173786 -6.226025913386744
-4.435053356964381 0.9816508225936061 -18.878645682649577
-1.007560262955174 -2.351209929747669 -6.775417164114022
-4.78091072823667 1.5427070069576252 -20.099140114239606
-1.2009596569951977 -2.3615947255807552 -7.459057791845116
-5.023280501235836 2.1284756248969994 -20.953760053358362
-1.3597367241446638 -2.3059603997430917 -8.020086364327183
-5.102152779233737 2.6909680298133427 -21.230547300791375
-1.989882395501941 -2.6296350072304726 -10.248598039506657
-5.431843540892454 3.3971218194480395 -22.393386891755565
-1.8457030913749082 -2.244705793763238 -9.737601377914517
-5.035145146059394 3.721177460535586 -20.990033922293588
-2.1690570408888314 -2.2086732364023867 -10.880426196432955
-9.968455072616841 7.706489481603956 -38.413511666620124
-0.007937159746949085 -2.3368901059603244 -3.282644702140599
-2.3063284469159786 -2.0245715862578217 -11.493073139507544
-0.060522605714044 -2.3226456737705568 -3.4704678412100103
-2.1620082312671443 -1.6536038108063043 -10.976128689931052
-0.12052353416802153 -2.3153128660365256 -3.6848085271116737
-3.0518497035617944 -1.751738606774207 -14.155649148928946
-0.1911284644180915 -2.317637488866208 -3.937070202445864
-4.344758572533141 -1.8299785431780986 -18.77515099626839
-0.27466010010245867 -2.3294486102538583 -4.235548266176937
-9.127336542850825 -2.570404120950822 -35.86468555961806
-0.35593618892266754 -2.3240252733492275 -4.525907145782322
-9.855503604552695 -1.8111576940579783 -38.46352414519311
-0.45126140976719653 -2.3265264672113224 -4.866487832774684
-9.784004790686332 -0.8571962458946795 -38.2046665835564
-0.5529813018934189 -2.3207209946344958 -5.229885920684614
-4.534551440647598 0.041749844835184735 -19.446543124229898
-0.6775886800583868 -2.3295321418776465 -5.675106855441281
-4.81513097618995 0.5495208345555664 -20.44716499411795
-0.8301882320048786 -2.3518060250033597 -6.220382991807486
-4.371117360078158 0.9799636231820078 -18.859283667859767
-0.9881774454753567 -2.3523739691761225 -6.784839765319955
-4.754986353589922 1.55120768156713 -20.228704814867765
-1.1765663962589492 -2.3593807908733035 -7.457929141722247
-5.223060259656498 2.2201873461725525 -21.898619151513632
-1.3321991613845976 -2.3024152648261245 -8.013759822730272
-5.035974928038831 2.6886701887346214 -21.228538442478932
-1.9524287625386443 -2.623198126066129 -10.230822227803747
-5.467084576104058 3.449620457565074 -22.766058163062233
-1.8106902874788473 -2.2397293615274276 -9.72305733913032
-5.0063823791628055 3.7405772751618827 -21.119052214134815
-2.2356814879081934 -2.2768605513532014 -11.241572302766174
-8.633357912931126 6.841541955821129 -34.066201142378084
0.00475717448934887 -2.33382753933579 -3.28081502356453
-2.26326978159668 -2.020046263764032 -11.476368809039686
-0.048645478323583013 -2.32263383366251 -3.473773238957741
-2.1220387847833218 -1.650547211700091 -10.964632414185973
-0.10801020894246438 -2.31530039153995 -3.6882910655858536
-3.0230820628852193 -1.7580994186368148 -14.221400928807244
-0.18024736906837946 -2.322096401870826 -3.9493821760062637
-4.2821392298340255 -1.8280993893914377 -18.77190371140689
-0.25906680036842356 -2.326877459726031 -4.234254011211782
-9.011857731035287 -2.5683935851383293 -35.86782875843904
-0.3409263030664458 -2.324010309828151 -4.530084598887737
-9.795691904648537 -1.8204470824648729 -38.69792940721654
-0.43179773493359286 -2.3211378740594895 -4.858485317866888
-9.704209946805532 -0.8599078437083749 -38.36385761189399
-0.5373712779547155 -2.322876366167621 -5.240035550990297
-4.493905960542897 0.04193499056874797 -19.5305150993218
-0.6666812055216826 -2.339723588683357 -5.707423702290217
-4.778973897649524 0.552033929946948 -20.558919896286795
-0.8081284559832018 -2.349238604982836 -6.218650283259696
-4.411582050892284 0.9978254638060541 -19.229559121799653
-0.9649361078416259 -2.350575449963911 -6.785359884950419
-4.68908622319543 1.5501242436470386 -20.230478819818938
-1.153878528034827 -2.3604531516859155 -7.468236564561009
-5.294021113830884 2.2693002507918587 -22.41414114057672
-1.2996154510551385 -2.2953474769167337 -7.99469715883172
-5.010035923780869 2.70595362512524 -21.386248069305413
-1.911667179036492 -2.615386894537389 -10.207810249703721
-5.410576764898631 3.456455238797775 -22.831112500971145
-1.7745157811438717 -2.2351637068647108 -9.710779482953136
-4.953664007888382 3.7478525275593118 -21.178777029203022
-2.274617848186078 -2.3285396706055836 -11.51848904501577
-8.492859046299621 6.8147278176142265 -33.958465445740664
0.013589175970267542 -2.337885587142157 -3.290390456159548
-2.2203539408260236 -2.014240845224575 -11.451323638579886
-0.03837969868458613 -2.3245757838923278 -3.480219306542388
-2.084175822735644 -1.6474927900761562 -10.952451046565647
-0.0952937353126837 -2.3134175403788664 -3.6881244161450377
-2.9928828648684984 -1.7628616547716134 -14.272987246648558
-0.16820485033940424 -2.322978663347916 -3.9545521715231846
-4.1866968187569045 -1.8136527044652477 -18.634975234641363
-0.24814136475349446 -2.3311261515546873 -4.246643520403999
-8.64055447314872 -2.4987042430724404 -34.91039944444586
-0.32679000743990216 -2.3239963046539716 -4.533974982748123
-9.705626688102456 -1.8236525324854735 -38.79939268459898
-0.4191784492343591 -2.324960591320259 -4.871535569693319
-9.633034300617647 -0.8628401518347965 -38.53068934687983
-0.5168284162192376 -2.3163434268918155 -5.228286346374573
-4.3982584973249494 0.04172008127977894 -19.4012602540813
-0.6487604537610809 -2.339025692371161 -5.7104050058209594
-4.70157405705304 0.5503414380405922 -20.507640717697193
-0.7902754122537023 -2.350493638647068 -6.227496180485144
-4.372718657281582 1.000879962435984 -19.304484501790963
-0.9455080223766574 -2.351739933619233 -6.79466901499501
-4.753279987437677 1.5833832732742337 -20.69282923412748
-1.1300137170841091 -2.358787270084332 -7.468819017203696
-4.395495200071868 1.9688275543518843 -19.384208699486432
-1.2717168436016097 -2.291299874103889 -7.986313726999665
-4.820808805063742 2.648459164068897 -20.935714558376745
-1.8729429081546727 -2.6075778787172688 -10.184138472542088
-5.343196623333848 3.4553922202055563 -22.841438308522694
-1.7371323158429177 -2.2281264662805795 -9.686561233901553
-5.128023848249829 3.8957498858783244 -22.05367498099694
-2.2305872435105973 -2.3211709785681007 -11.489821639110229
-5.098660322068235 4.439400098700051 -21.944430658334863
0.022467878303894073 -2.341943415163926 -3.2999461343307614
-2.179145843036662 -2.0093978405208426 -11.43185128345009
-0.026263911108171056 -2.3226117264362744 -3.4798992352143516
-2.057266540342283 -1.6502089676041578 -10.980307000177374
-0.0839683953777155 -2.3143413976446308 -3.69303896281924
-2.9463340014851136 -1.7605338838069835 -14.265067181220424
-0.15380785521432494 -2.319388417273739 -3.9510551568517345
-4.137313922097841 -1.8150575054926161 -18.66493313159556
-0.22724340830320244 -2.317474788012722 -4.222330876217085
-8.472742016690686 -2.4806665959626484 -34.683108443872534
-0.315026211432071 -2.328033288923908 -4.54665274406911
-9.648991534418432 -1.8326793883279704 -39.0260170158615
-0.4031226016356737 -2.323410782115091 -4.872077991917315
-9.557859843839333 -0.8655154379019488 -38.685854051961165
-0.5031720206124237 -2.3199480708683073 -5.2416644369176995
-4.346743932438445 0.04180381567196561 -19.431864588661426
-0.6323064722811638 -2.3403697787311737 -5.718782068509022
-4.2733993111102855 0.5150269515379737 -19.15920362149328
-0.7728800241239431 -2.352385479730054 -6.238125849569978
-4.304236337603842 0.9985151380482253 -19.271364932543648
-0.9230488347188319 -2.349350581570795 -6.792863037028518
-4.258616042445952 1.4639406403128445 -19.101153494372426
-1.1116827861259668 -2.3631477521139974 -7.489756216681224
-4.360652325595117 1.9764575540930858 -19.47622953674482
-1.2443860220855496 -2.2877553812737905 -7.97971060869569
-4.6362149764773495 2.5919052828527565 -20.49196994997131
-1.8353869289290963 -2.6006843629078005 -10.164095246402548
-9.602124992464924 5.810629938323794 -38.8251629543697
-1.701945253371907 -2.2227386244427 -9.669771247266207
-4.896738823417146 3.788947981124018 -21.450047111499362
-2.190845696399884 -2.3167368566071627 -11.47618858375026
-8.265579286370471 6.789870285543576 -33.88419187035724
0.03939080151542074 -2.330743517956687 -3.284881961181821
-2.1344087827730815 -2.0048715363372733 -11.415266653894669
-0.015006979227574435 -2.3255289118963343 -3.4883497350153068
-2.032330193084614 -1.656218293012669 -11.032146873166132
-0.0706918419187903 -2.3143284078184254 -3.6966105585239326
-2.8039077649342525 -1.7177198220524297 -13.918625105094408
-0.14340957475380844 -2.3265304055857117 -3.9686718756940413
-4.057434512903724 -1.8080755297078015 -18.608044863672504
-0.2206996193829065 -2.3328031322043903 -4.257815044563045
-8.33011456365193 -2.4721322087027118 -34.59336378876469
-0.29482289718350363 -2.32072607052838 -4.535045609513969
-9.50349937527699 -1.8288859463334155 -38.98032238924983
-0.38756877608764095 -2.325696570260204 -4.88199987310144
-9.469697452540347 -0.8683056480929287 -38.85037307820909
-0.48935516783184396 -2.3264471942231375 -5.26275653340312
-4.288629469794728 0.04189777703293795 -19.466138240961257
-0.6107224892671579 -2.3376280695476543 -5.716798316746822
-4.198581310746399 0.5138365575129898 -19.127567799168894
-0.7506256576719681 -2.35109097390012 -6.2401854801587655
-4.21514020359309 0.9935435170754328 -19.187760917100974
-0.8995364019227359 -2.3487357038049277 -6.797210725562488
-4.514325054435172 1.5521634153762283 -20.304888482909103
-1.0834948862766673 -2.3598363728612504 -7.485388281303965
-4.329115729531887 1.9880717656530906 -19.610485690526946
-1.2101433922857259 -2.2801842656264135 -7.958853999143333
-4.68145291361495 2.6431587657762674 -20.926091946440334
-1.7957429912478637 -2.595160264821742 -10.150565569363433
-9.525437780907039 5.836688081204897 -39.03442991643663
-1.6643263534329737 -2.218171882880385 -9.65759824093302
-5.095781699816911 3.9614434864607158 -22.471168048460555
-2.1460007381506347 -2.311565531428351 -11.459748657290053
-8.311197024684116 6.903255134187979 -34.48840339263562
0.050035950063084034 -2.327683459378241 -3.2823680371739434
-2.0976364922532342 -2.000033258646906 -11.394406568573793
-0.005183774311342315 -2.3255193598870068 -3.490962661266088
-2.0152128383667494 -1.6622355542124867 -11.081799692372103
-0.06035956305576384 -2.314318360822461 -3.699358879480224
-2.858037547150918 -1.757937385778525 -14.266078114893409
-0.13195552136232425 -2.3256250664271954 -3.9698673060893537
-3.9958790988695085 -1.8027468405548395 -18.56465242627199
-0.20622244522247368 -2.327677296861778 -4.2504330236555905
-8.209553751188443 -2.4628075113970813 -34.48502782929014
-0.28384312067791395 -2.323144553189298 -4.5436424466536725
-9.49076594989736 -1.8434782262326779 -39.32277891930085
-0.37292363496954284 -2.3233813149274316 -4.8801619910837
-9.409764900533597 -0.8712508753436984 -39.01321622581406
-0.4661431749852407 -2.3126754722711236 -5.232277498873863
-4.154273802592848 0.04134049650825668 -19.15626273151955
-0.5964139806582083 -2.33897445813746 -5.724496181508664
-4.2037351059004555 0.5190876915025078 -19.341363373522032
-0.7340766482422822 -2.351074881475939 -6.244587586436749
-4.191471833484983 0.9982361196866338 -19.29328104374221
-0.8840675242384399 -2.3516797975849943 -6.811208719722769
-4.260667637831575 1.495392234243604 -19.552859121398804
-1.061444016060163 -2.3570783761733605 -7.481302031533838
-4.213100719909971 1.963309432798407 -19.371453333483057
-1.1834548796463678 -2.27412814024076 -7.941916366575123
-4.417475571489444 2.545076087084366 -20.141387196177114
-1.7621709797778349 -2.588270994117264 -10.12927617380005
-4.518463507470625 3.1059884795868604 -20.520832902443345
-1.6319176873595025 -2.211963549078112 -9.635842998833686
-5.031954477395647 3.956581092843006 -22.457525596660492
-2.104627656512494 -2.302735178254939 -11.421927033180847
-4.8521828209535 4.396590137317098 -21.776792803726376
0.06091949452000733 -2.3286895896903306 -3.287012276779111
-2.0547494235377695 -1.9951889999628096 -11.375070803177664
0.00763553826177743 -2.323554825141989 -3.4907258215465076
-1.9902597445354047 -1.6674225742826045 -11.127286394748872
-0.047803202893637264 -2.3143062226405338 -3.702662877268959
-2.7955194285507465 -1.749433013055555 -14.206511125296792
-0.11498191051877571 -2.318456691117358 -3.9595360031000943
-3.9210596960088484 -1.796133952615326 -18.510200177993354
-0.1892885376786193 -2.3225493922563074 -4.2436636740255285
-8.089468039872333 -2.458358444600554 -34.450602812859586
-0.2692426464378128 -2.3239401614548743 -4.549375045223974
-9.411894681543433 -1.8503481228815444 -39.5046784233896
-0.3573290986470854 -2.324133247160577 -4.8861752830376
-9.325263764341981 -0.8739191059648673 -39.16985008080842
-0.45516090450503444 -2.322072103811455 -5.260228428744781
-4.077605431750504 0.04126641967576601 -19.10198538277245
-0.5778468283391347 -2.338956508818261 -5.729382085325679
-4.3046106716515276 0.5349597928669921 -19.968127202251846
-0.7125284674478178 -2.349145052546565 -6.244376718641692
-9.346366019240131 1.9964875504871742 -39.23995750854519
-0.8613093708407642 -2.350474043034475 -6.813246188155197
-4.204566059052515 1.496451773612016 -19.582061094277137
-1.0386348399648246 -2.3581508594317233 -7.491281379997034
-4.1444255078260674 1.9597680474323589 -19.350407426831726
-1.1534119543762553 -2.269073725548619 -7.929805642070772
-4.119297959734259 2.43402495342552 -19.25258431160973
-1.724132251953369 -2.582291744710706 -10.11311385013463
-4.5822626677784815 3.1770971525781087 -21.019997816088882
-1.5972865547732422 -2.208223862086221 -9.626741148591083
-4.966679647551109 3.958613813721468 -22.48693937822246
-2.0626864532812164 -2.2979333202213885 -11.406534040785171
-4.781949814511877 4.393663563054547 -21.77902104383097
0.07158497706478051 -2.3286793445193643 -3.2897860116853392
-2.0121030614531117 -1.989064663989706 -11.347406556483357
0.01668985133234968 -2.3284264985736374 -3.502098078466166
-1.966609671396314 -1.6723366588766027 -11.170280777824015
-0.035093224853885996 -2.3124234961251697 -3.7023152700953705
-2.7453973795685487 -1.7452771437421681 -14.182593765350315
-0.10511948976768948 -2.3238112691315607 -3.9731906062655575
-3.851415048842143 -1.7900714043976569 -18.460398622759747
-0.1723332809445488 -2.3157176238966244 -4.233117382192211
-7.960283573099537 -2.4497035760434502 -34.354307180351036
-0.25550779695682135 -2.3247366917986363 -4.554837023314927
-9.336553405277776 -1.8567770371897927 -39.674979287746396
-0.34127295630246124 -2.3225835655745213 -4.886533742625351
-9.250383323829977 -0.8768933747261892 -39.33807389565321
-0.4403809604018383 -2.324228892100371 -5.2698510033460835
-4.072310802518094 0.0416787244789087 -19.30794847717589
-0.5617686652540548 -2.340981534260903 -5.739392801578534
-4.229810329569389 0.5332629578021257 -19.915274447281917
-0.6855430302718639 -2.338301587402037 -6.218091935492691
-4.70985986036978 1.120792043441327 -21.769738339345803
-0.8403150960135908 -2.3498619955811617 -6.816732305567326
-4.189816075791228 1.5083861302374015 -19.756979385756647
-1.0133382658904522 -2.3548427074791305 -7.485935469735935
-4.118277256270933 1.9709960716532415 -19.4785819059182
-1.1229987139904425 -2.2620091868104604 -7.9097133823333206
-4.051569831626079 2.4281802405245307 -19.218892330150627
-1.686606732349581 -2.574941889413524 -10.090684476628452
-4.723860558125536 3.2919057438072055 -21.8158489513738
-1.5625458407576753 -2.202837139301728 -9.609488278531263
-4.779292187917926 3.8770473622221115 -22.028066911697447
-2.0219606861925916 -2.2924001648119368 -11.386653462857465
-7.861058710032791 6.780154965654433 -33.93636266708006
0.08183188425993804 -2.3296862191165766 -3.294197996464461
-1.972081230939254 -1.9845437601311022 -11.32915810675819
0.02795520427595255 -2.328415744621317 -3.504993933299435
-1.9461779845475007 -1.679174109684426 -11.226668322586148
-0.02588962842957998 -2.318026518540091 -3.71563146745647
-2.69347446954344 -1.7402066633475772 -14.150807157407902
-0.09209605911278018 -2.3229048640663716 -3.9746920894604765
-3.7894882301150448 -1.7867416643014675 -18.43930078441387
-0.165287243088881 -2.3276379683295665 -4.261082179029756
-7.847523016461026 -2.4453981378333323 -34.319425578044545
-0.24130168032022725 -2.324723130744218 -4.558488744569707
-9.250458546328321 -1.8614150043267907 -39.80644498417843
-0.32888015390768155 -2.3271740524966344 -4.901161287838832
-9.171680691993016 -0.87961083108371 -39.494564653644495
-0.4204895685025336 -2.3184207461396387 -5.2595647054492725
-3.9747839975266075 0.04142244637086431 -19.15749178230606
-0.5409984067396647 -2.3362005913003765 -5.731139735547249
-4.118711287467587 0.5278611580685324 -19.71881547596703
-0.6727865132211277 -2.3465617284392133 -6.246819109690084
-4.638641003245588 1.1191090876138756 -21.750917562182476
-0.8202631295597833 -2.350434737597832 -6.823859030453812
-5.064997960637765 1.7784047798989413 -23.416646461712144
-0.9933238608285986 -2.3575601979648324 -7.501011055755175
-4.066799028096044 1.9727540756251538 -19.510317995315294
-1.0946320837710013 -2.25695691361443 -7.897019586021695
-3.9850597671581287 2.4228068842736983 -19.188826362032557
-1.6526031185928474 -2.570795279300129 -10.08133366671464
-4.650615236481948 3.285762345961568 -21.7897004607344
-1.5264713947630997 -2.196213969863751 -9.586431343435303
-9.21648158721442 6.895108829609075 -39.640902477962314
-1.9823456112242914 -2.2876009577775624 -11.370446253133373
-4.816383939567673 4.516041152580814 -22.433712446063417
0.09378010380157753 -2.326624907981406 -3.291903597168193
-1.933148913879619 -1.9806647138768223 -11.314608962552576
0.041789385736719975 -2.322546143383098 -3.497703947016932
-1.9239968397424947 -1.685187114900895 -11.277272589480766
-0.0144585877175607 -2.3189509386389187 -3.7203595070899063
-2.6461328825088257 -1.7371948602664093 -14.1361865129888
-0.07688523128855707 -2.3175263515972917 -3.967482491080516
-3.7272251448765816 -1.7832303964216711 -18.416077593050936
-0.15411258377096027 -2.3318872176384327 -4.273255931831848
-7.757981497270536 -2.4474797106633956 -34.375113885740184
-0.22842543450388852 -2.327139869661225 -4.567419827317289
-8.298688374687309 -1.7077676426133805 -36.51283749588558
-0.30828556365974036 -2.3179500844580883 -4.883527598954455
-8.263148254146714 -0.8099021046158531 -36.3687896590429
-0.4047694416697407 -2.3191296589491435 -5.265482512467355
-4.7965705260874145 0.04799505402800505 -22.642434957649336
-0.5290248371282353 -2.3443514153814538 -5.75746675111515
-4.118933987002031 0.5337221898632013 -19.958056254355125
-0.6529249721705703 -2.3452701241157805 -6.247953510766518
-8.175974970984297 1.8312686528125646 -36.013798132420895
-0.8006518231244637 -2.3515999039650444 -6.832784394303583
-4.909130965229313 1.7524155098103396 -23.081648227424
-0.9704155551810045 -2.3569911901769776 -7.504847293547437
-4.027371777388216 1.9792472976739788 -19.590181226061055
-1.0677718944765682 -2.2534137295538694 -7.889863675122799
-3.9810400326483 2.4476309088098183 -19.405010328834756
-1.6167648608488399 -2.564818688162037 -10.064325510523796
-4.572702572603873 3.2767992798882006 -21.744124355930737
-1.4929390166411072 -2.1916520591076956 -9.572740733906699
-4.649757774919701 3.8748727547330497 -22.0469206760388
-1.9447665419283375 -2.284268786915404 -11.361737317236308
-4.69488960787338 4.4716102126520445 -22.223352705855095
0.1088692041381174 -2.3174607353436456 -3.27971141934801
-1.894169208075591 -1.9780663849116533 -11.308109784183324
0.053324467014410404 -2.323511353047257 -3.502398834660002
-1.8980527943033996 -1.690374026031228 -11.322593503419775
0.0002938254739699442 -2.3142604593093794 -3.7149511220874913
-2.5920228059737918 -1.7321229278457326 -14.104702574360614
-0.0643987762738285 -2.3193025352503063 -3.974305671010674
-3.6599037778255656 -1.7789880035124652 -18.385746195826414
-0.13373396715753882 -2.3199408636949297 -4.252255378835246
-7.6360360767173185 -2.4422186413714333 -34.32755163130565
-0.21329400832960355 -2.327125606465069 -4.571218391460356
-8.164564415000012 -1.70318799582678 -36.443509426311586
-0.29176924785475866 -2.317167259615622 -4.885769196540422
-8.141040810986967 -0.808686701055296 -36.34584036150298
-0.3884672391737274 -2.3205614734756335 -5.273419276084679
-8.100829239551537 0.07347994932273907 -36.18131601641692
-0.5039972127934278 -2.3348052773121966 -5.736603806868739
-3.9985777413311183 0.5276210869548652 -19.734717464998376
-0.6337223289729927 -2.3465247906914057 -6.256683502088243
-8.0689362847803 1.8316614006073875 -36.04685070318672
-0.7774117939965641 -2.3498023309640987 -6.8327096485839265
-4.06628910393377 1.5234385886466404 -20.002407075686367
-0.943310294544492 -2.3531344619885255 -7.497768205079822
-3.964253450114838 1.9779776152133692 -19.59165619842351
-1.0385664888406219 -2.248863379673601 -7.879233365493681
-3.92136044913274 2.447450627964085 -19.417943666344172
-1.579198955562733 -2.5588406500568173 -10.047659849561311
-4.0673456454257 3.0185877003165285 -20.001008586038292
-1.456797920918896 -2.186264530287277 -9.555581183695418
-4.59847794232529 3.88575471301118 -22.1269199300182
-1.9118474362500233 -2.2860691452894293 -11.380136618414614
-4.51596187850199 4.384183862487741 -21.794254468818956
0.11540145324417705 -2.3276212527840032 -3.2990745442890583
-1.8719547329661255 -1.9854099766559592 -11.360398810473349
0.06584203996745397 -2.3205711377825695 -3.5001080768926656
-1.8748875347094922 -1.6961123386804309 -11.371199028845082
0.011310238768664993 -2.316120681975737 -3.721324720208525
-2.543529664511664 -1.728425989036295 -14.083975733490837
-0.052240705166033186 -2.3201851283443147 -3.979163567045413
-3.5927616830892033 -1.7734741310489925 -18.340836654607042
-0.123397844436413 -2.3258947749214265 -4.267867147646876
-7.550116467114154 -2.4453883276099893 -34.39819583767913
-0.1986042783277635 -2.326302351098242 -4.572977394523482
-8.052666987158052 -1.7014799049819704 -36.43420854763244
-0.2775204026336948 -2.3186881959693952 -4.893108433633047
-8.028924437801884 -0.8077776340625765 -36.33450335080291
-0.3700250693288909 -2.316925996654555 -5.268388564952493
-4.0000426246488745 0.04306091196851643 -19.98627536555978
-0.4864888603064268 -2.334788880103009 -5.740945551011819
-3.974490913345358 0.53107912479222 -19.88076483178768
-0.6161208413920847 -2.3484173464489366 -6.2669082557664835
-4.571669463763647 1.1443642840754742 -22.30117287974155
-0.7550149658069627 -2.347414264724063 -6.830391340815063
-4.113491939902736 1.554843823724842 -20.44080984256332
-0.9167434953965383 -2.3481833433730324 -7.48652036138545
-3.916596483396236 1.9814398119636103 -19.640399684880464
-1.012758070744513 -2.2463268076069394 -7.875662041508686
-4.0249052764822535 2.5265392290832467 -20.077737280791126
-1.5431311536232946 -2.552407095901608 -10.028520946776753
-4.000477229213182 3.013002028457306 -19.976790332291994
-1.4230040198759475 -2.1812911693053865 -9.539765397813873
-4.507744135054574 3.8667987591018003 -22.03152174251819
-1.8917394078359375 -2.2963060257226284 -11.441841219581843
-4.322276573053712 4.279926022904992 -21.277517738776343
0.12569378563322287 -2.3286283412235527 -3.303368986380085
-1.8490044398676388 -1.9924328752619385 -11.410737160063308
0.07751476261361867 -2.3195844255899174 -3.5011713025509525
-1.8524104618203732 -1.7024000726866646 -11.423618768443506
0.02318882834155378 -2.3161096271275308 -3.724235279186102
-2.4942403041265635 -1.7242718984505505 -14.05923026285974
-0.04006433615149341 -2.32106777840509 -3.983988771168888
-3.5504043194940156 -1.7774321335375387 -18.39632851767633
-0.11042002002447981 -2.326734675889748 -4.272909557431702
-7.470477616980385 -2.4504605457139124 -34.49577745919695
-0.18434663968561726 -2.3262890822035334 -4.576470869814673
-7.956016751845902 -1.7026370276062033 -36.486687955537384
-0.2610596474217124 -2.316371567318732 -4.891436688706224
-7.937284413007911 -0.8087081424403346 -36.4063628096203
-0.35867007953298957 -2.3248756994976008 -5.292285344741535
-3.94886590330211 0.0431618184212281 -20.025582099428714
-0.46896844118959047 -2.334772575505692 -5.745238081861433
-3.910357311257532 0.5303810469661399 -19.865601260293136
-0.598475326209609 -2.3503099727559933 -6.2770877678645585
-3.688103854687756 0.9765362580433435 -18.951269444591976
-0.7353540713846336 -2.3485795184107543 -6.839142019122933
-3.9835919819103385 1.5332809363035198 -20.1625039266162
-0.8998026391748875 -2.354735688346959 -7.514436278456888
-3.867292518522854 1.9843337810900896 -19.683229051476363
-0.9833250092252392 -2.2397663302860713 -7.856963867102554
-3.9367487349619115 2.5112571624687567 -19.9664268847121
-1.5085710896728861 -2.5473464568905664 -10.01493865586976
-4.047220646087959 3.0756523178373087 -20.417903782697667
-1.3907063693474935 -2.1775547416722527 -9.529545327749593
-4.4498206649324725 3.8704638917715415 -22.06805947814869
-1.8666610136158999 -2.3028756448645766 -11.48442184003997
-4.225494868788852 4.251192570318568 -21.145472134950296
0.13760972924248083 -2.325567316563024 -3.300937845112502
-1.8244143560421835 -1.9984940696690447 -11.455281076839182
0.08877737167019728 -2.319574010517326 -3.503897515313996
-1.8282769191207453 -1.7078635821232175 -11.470224772856374
0.03548711696207074 -2.3151629797970417 -3.7253936045514857
-2.4469793104856024 -1.7210330063129113 -14.042049684833675
-0.027453213330462134 -2.3210561165726635 -3.987041265161343
-3.4979977991463302 -1.7775654413087147 -18.411062294485898
-0.0965791967321028 -2.3258698958150315 -4.274398334721678
-7.386635428474663 -2.454445872499177 -34.577659818702834
-0.17008056736574795 -2.3262758901334437 -4.579923871757352
-7.8614907032936445 -1.7042419050287163 -36.548621772901164
-0.24289440665921136 -2.3109853442126056 -4.882532411009503
-7.844855015665742 -0.8095961303120239 -36.476051475030594
-0.3376145461083402 -2.316895930453646 -5.276281362751721
-3.9082736956591972 0.043346807727211396 -20.109487340426107
-0.4509983020464876 -2.334075547412283 -5.747652421830261
-4.1096659432062035 0.5578796121888487 -20.944652935595478
-0.5776876036711949 -2.3477454209052344 -6.2743169505706495
-3.6299267220410902 0.975811909073329 -18.948907767956683
-0.7143212191586383 -2.3479681722780175 -6.842267209360063
-4.4494342765269375 1.693967722665676 -22.352620946683476
-0.8768804848100946 -2.354167206525998 -7.518005189457867
-3.819655559415099 1.9879852128124744 -19.733678766498834
-0.9540148348720014 -2.233206102278488 -7.8381677845432804
-3.882255679671446 2.5127257551168043 -19.991877136657322
-1.472290184985636 -2.5404561785682147 -9.99367244877641
-3.936313797473093 3.0438437095345905 -20.2145459451757
-1.3557427528618569 -2.1713452464198197 -9.507805035226198
-4.245362710220062 3.770198724374361 -21.496394879870085
-1.844128220570006 -2.311645483057363 -11.538424922869336
-4.227914673277044 4.3024733398410655 -21.421829981288752
0.1485867876660094 -2.3265739041356612 -3.305331547731218
-1.800683174110395 -2.0067974871953376 -11.513725605731882
0.09994916730505721 -2.3215159318691216 -3.5101564725421506
-1.8036277588710015 -1.7144238997970838 -11.525000402249956
0.047713628659555196 -2.3160870250531462 -3.7301329459181254
-2.3945418195103416 -1.716420086911316 -14.013724529615217
-0.014454782908413177 -2.3219381630780003 -3.991986758697596
-3.4316480475948934 -1.773506826137609 -18.381867262697405
-0.08189828030213775 -2.3250041876862886 -4.276046634986506
-7.295324500713236 -2.458153904432129 -34.65692865115807
-0.15575325156658382 -2.327882215744123 -4.587108166588017
-8.574254109525267 -1.8637230956292283 -40.04102632063928
-0.23321525981888103 -2.3224823682183455 -4.913328720973259
-8.550687714066173 -0.8849986389876582 -39.93799473734578
-0.3186565232732719 -2.3139838713759215 -5.273144875466246
-3.840059833969133 0.04334807614270588 -20.09494474208225
-0.4262876062773244 -2.324530149510317 -5.726488145753944
-3.6357101898316087 0.5134591381088836 -19.232484199130106
-0.5574872342100574 -2.347726864064568 -6.279144627252248
-3.610394758732454 0.9839020595492388 -19.124051272074052
-0.6924350671229667 -2.347948067392258 -6.847497479035363
-4.37226417910274 1.691166622546091 -22.330040985535376
-0.8529887745987139 -2.3541452580131668 -7.523715391392166
-3.8381570753658965 2.020433959105972 -20.079307498418192
-0.9238108045176674 -2.2271478769697297 -7.821502830866105
-3.8011112522179173 2.502400200451728 -19.921424409719993
-1.4370059985148804 -2.5363094623672073 -9.98408996718824
-3.787746735009886 2.9903244067381753 -19.86325454015302
-1.3214259046958532 -2.16719550770488 -9.495883757747261
-4.091920279739833 3.7069816056566993 -21.141562600660492
-1.8164712400996013 -2.318213133937557 -11.581420574099997
-4.260365979879322 4.3829237689524865 -21.848388768150624
0.15851769916203173 -2.328598187241333 -3.3112138923153243
-1.776045827554096 -2.013179016272453 -11.560106250317453
0.11362269614551734 -2.3156466483079683 -3.502622854919024
-1.7798938781366627 -1.7204367832085878 -11.575380219191562
0.0580047107485262 -2.3198192267512976 -3.739826252172821
-2.287261294296198 -1.6827710947673642 -13.738946039474014
-0.0014137422716411496 -2.3210322717968515 -3.993226198742935
-3.3783624836216344 -1.773276541543675 -18.392394392392607
-0.06970828331122925 -2.3275490209926555 -4.284499698880028
-7.220262567047318 -2.464992662906574 -34.779198557197574
-0.13937349853270287 -2.3238185370253017 -4.581578783207506
-8.496038950343438 -1.8705109940443636 -40.217552879784066
-0.21548238089968152 -2.3178639935243956 -4.906127768561076
-8.487391797000512 -0.8895551025571546 -40.17686919044176
-0.30031947900834144 -2.3103488777055583 -5.267894824057974
-0.4045216102401834 -2.317708503562326 -5.712301229260614
-3.587793828363295 0.514311027370548 -19.276660146932148
-0.5380331461314536 -2.347072594016095 -6.281786936656443
-3.589229052472861 0.9911180021617099 -19.280931572270706
-0.6705189191004441 -2.3461525973696666 -6.8467805889719004
-3.92845998875267 1.5718151642778486 -20.725357255958162
-0.8296127910950846 -2.3530293428471083 -7.525278438300573
-3.8992411526352235 2.0699308731626744 -20.59881816237009
-0.8951822606595103 -2.221091236639362 -7.804392184422365
-3.7217289058377343 2.490890542609042 -19.840166835217126
-1.4018631069605163 -2.5303345821983725 -9.966376964623501
-3.771455629791774 3.0157548859917265 -20.050194127637685
-1.286274935185949 -2.1605743797084136 -9.472006709616714
-4.013322382958445 3.693922183157983 -21.07902527541917
-1.7925063522580762 -2.326249581899411 -11.631518136558482
-4.280408512180875 4.451780687870251 -22.215097770831797
0.1708006482128659 -2.3245203465989004 -3.307003355414306
-1.752504567416777 -2.0205226203847944 -11.612213590608485
0.12331843189360436 -2.3195424817838415 -3.5120509721213695
-1.7563444566135422 -1.726724335944779 -11.627652395427106
0.07272041444417188 -2.3132586727466613 -3.7305505551736946
-2.2989148769362284 -1.7090294136239408 -13.970843713411114
0.011626906177025331 -2.3201264554251084 -3.9944280916880057
-3.3237014529394173 -1.7725002204068636 -18.396954386182404
-0.05625694278098403 -2.3275368240399876 -4.287634060163478
-7.137825634808949 -2.4697934016902106 -34.87216453180592
-0.12303317099630173 -2.319754976741853 -4.575998671552576
-8.41690318024092 -1.8772986050499754 -40.3939590758668
-0.20195801146617964 -2.3209198668876243 -4.916864832119491
-8.237461186843804 -0.8765432401442056 -39.61506632462382
-0.28622028310590175 -2.3139543647150433 -5.280750838304626
-7.977365178999404 0.07812606359291752 -38.488042123436685
-0.3938595883570397 -2.3285819656633304 -5.7456820313138826
-3.467043406537319 0.5070968738757954 -19.007122257892412
-0.5198564899684675 -2.3483289118153747 -6.289915671819145
-3.704685068812915 1.0278710755468061 -20.031420636954003
-0.6503400005823603 -2.3467262038736765 -6.853444745645523
-3.6611045971999356 1.505718819906178 -19.841336390778253
-0.8079754749063051 -2.3541043106114037 -7.534270352372776
-4.183896243612236 2.2149103801423062 -22.096409198302606
-0.8670984487069082 -2.2155376752971008 -7.789072292880922
-3.634317511629593 2.4748973347551715 -19.721866956775063
-1.3659580041067747 -2.523444937839139 -9.94475610238438
-3.7224234161006207 3.021164845756917 -20.100247812653336
-1.2556846041008207 -2.15807558556748 -9.467077574178854
-3.95782028146839 3.6975838519922273 -21.11424183870391
-1.770054128098556 -2.3357525876420224 -11.689237855043539
-3.962692406766699 4.237583034183762 -21.133175990983613
0.1803729501524265 -2.3275617564857676 -3.3145070821627876
-1.7278143839085331 -2.0272247137603183 -11.660434138977397
0.13461230817630188 -2.3195323069791485 -3.5146495166507616
-1.7325255151272645 -1.7330117239653846 -11.679887456696374
0.0861970672713196 -2.3095049191020443 -3.7263958051144392
-2.250434879884703 -1.704877271250898 -13.945299573798069
0.027053598532997825 -2.3138541220889253 -3.985128021126603
-3.273041927985762 -1.7733630087118177 -18.41882579919979
-0.04118661246003086 -2.3241155221955005 -4.283675536658756
-3.9669773244243016 -1.5310618610778464 -21.453400186183195
-0.10917418902514275 -2.3205522419705478 -4.581063820937304
-8.334186489303404 -1.8835492756346874 -40.55855889198132
-0.18715073667964832 -2.3216735641433215 -4.922166571169288
-8.149811316033494 -0.8787928867881969 -39.74808108509381
-0.2670815788086869 -2.308871384076292 -5.271763075717186
-3.993319456213463 0.046201167086606536 -21.56243877840375
-0.3775818464604943 -2.3306078503548533 -5.755216649285864
-3.4579005497743625 0.5122566115183078 -19.218488787391042
-0.49953700044961047 -2.346401519062161 -6.2887542973055215
-3.8694159379576867 1.0762489338791115 -21.016390738039025
-0.6318384680410232 -2.3496685974769562 -6.867502258357533
-3.589943275635771 1.501188147438311 -19.792204025463917
-0.7850176183035666 -2.3535363315016005 -7.537578757096528
-3.687002548652287 2.0298739643476496 -20.21470243681094
-0.8399779022207956 -2.2109902517550855 -7.777435745590919
-3.441332278537814 2.402272983933366 -19.138590850333053
-1.3306265887492426 -2.5170131057502982 -9.92491590645259
-3.576460707378689 2.964818096504618 -19.727478779614312
-1.2225246304981312 -2.153103804897595 -9.450608911773127
-3.58318883391422 3.463535215120799 -19.754951396657773
-1.7455495951358937 -2.3437889467219466 -11.739259982700965
-3.8771621800028706 4.21632412097751 -21.03794262838331
0.1939675456962603 -2.32348287356775 -3.3105282980974127
-1.7012094539377685 -2.03584662791888 -11.721129617722868
0.14809072375720778 -2.317567807331874 -3.514128590188526
-1.7032884698341457 -1.7387458573766825 -11.729181560530781
0.10151394379845391 -2.304814543762405 -3.7208095639115832
-2.198392056831869 -1.7014070443727853 -13.926550146380983
0.04006763429350424 -2.3165247069060046 -3.9935846916491817
-3.2327438127701384 -1.7813227618119032 -18.517834484710608
-0.024469364900161494 -2.32069259244186 -4.280048597169792
-3.8921865795611303 -1.5292341194853383 -21.443774507255608
-0.09150507714473965 -2.317297418824174 -4.577573773693576
-3.898242651962745 -1.005706396947408 -21.468582031323667
-0.17042001371314486 -2.322425634936877 -4.927857411336285
-3.895934709222903 -0.4773251858187988 -21.456248386789195
-0.25212025239207425 -2.3146473659847993 -5.29045265934991
-3.919921072841519 0.04623009635392631 -21.560639223068918
-0.35617688451260454 -2.327867718769937 -5.752360371049579
-3.3782408061096225 0.5103077793605467 -19.154558871117594
-0.47935497996618004 -2.3482925569474267 -6.299167373546576
-4.0243319585330175 1.1254132572948323 -22.01979908689334
-0.6094282609199342 -2.350832367352297 -6.876506369359316
-3.519475453704291 1.4990974001314108 -19.777515396867432
-0.7600851285882844 -2.3540613227238154 -7.545210212052405
-3.5399199116474573 1.9945039185574525 -19.866297859285236
-0.8138687275888039 -2.2109668925705135 -7.783361207490675
-3.3969610702874107 2.41176696938994 -19.23012112109269
-1.2943509972416296 -2.5133233835295217 -9.917176913904871
-3.4548541690188097 2.9273693538349685 -19.485040210800964
-1.185140151634571 -2.1473048024968056 -9.43099764061211
-3.4998786561323207 3.44883777483416 -19.682821392730066
-1.7121733608698062 -2.348154585415586 -11.771027797250353
-3.8175520665431284 4.223489392118767 -21.08975018890918
0.20253406031393928 -2.3275419902455035 -3.3195060295313574
-1.6776935332922627 -2.042229957496972 -11.766855247761029
0.16057553031302663 -2.3126761941908307 -3.507980844812324
-1.6819316815326915 -1.7455845948520416 -11.784716819640545
0.11303146911624806 -2.303869020911571 -3.7215766981069054
-2.151036019357452 -1.6963434916049946 -13.892359280373368
0.053079851220963814 -2.313830908398325 -3.9909988399545284
-3.168150011849926 -1.7750866904824156 -18.462905180469267
-0.011085755785502416 -2.318976709390071 -4.279336585986283
-3.828134683087855 -1.5271456481455459 -21.427444481631383
-0.07614431943918087 -2.3132349888757764 -4.5716437701774275
-3.8336803718383132 -1.004223633700747 -21.450279589371338
-0.15091753145715248 -2.312436285471413 -4.907620232550242
-3.8366076478728823 -0.4771031113337217 -21.46133628154956
-0.234853339868222 -2.3110137139806453 -5.2847666966489495
-3.8607509580034804 0.04627043654634489 -21.567738761699452
-0.34053831891449615 -2.3292144364146656 -5.759716718666844
-3.3444837349304297 0.5124083162840826 -19.24612363343774
-0.4622914533521565 -2.349550207082392 -6.30687445349778
-3.3198313433287794 0.9814408726695782 -19.13348270472461
-0.5850560250816077 -2.34370847213548 -6.858472162842755
-3.491847248003637 1.5075933213304298 -19.904312832112463
-0.738935467934051 -2.354042528911764 -7.54994569400872
-3.4419145195469163 1.9750368389156283 -19.678090462393907
-0.7895737476630464 -2.2079301042150994 -7.776899142435692
-3.581292036443692 2.5408880795141404 -20.30210683048835
-1.261496752254273 -2.5073512444873893 -9.898596073153733
-3.3894975245623016 2.9189556424556224 -19.43880323868163
-1.1539533265845419 -2.1423351194688034 -9.41391421706413
-3.449914618951764 3.4511798520501693 -19.708159809094923
-1.6867859487946995 -2.3539925740367527 -11.808948962057977
-3.895443345628987 4.341328603660732 -21.706523419960185
0.21402698916195229 -2.325498472861368 -3.3185194424978293
-1.6505339399341568 -2.047649811880042 -11.80723026058292
0.17073696887953738 -2.3155955392533683 -3.5155901471375177
-1.6581438283513983 -1.7524213680508738 -11.840697935752079
0.12339684513540872 -2.30760126979372 -3.731109984933344
-2.106055464826448 -1.6937930691834433 -13.879921013242479
0.06762640778595363 -2.30934781943215 -3.9850545558811543
-3.1325999119853423 -1.7825060865132771 -18.554396158201953
-0.0007480329716125222 -2.325783563019023 -4.296446189320266
-3.765078346223727 -1.5265481025772418 -21.433210128324
-0.06463186260488585 -2.3188931318709654 -4.5872979260730355
-3.770126283852866 -1.0037220116741796 -21.454098022546646
-0.13928500288091028 -2.3193298862872744 -4.927215438387536
-3.770445142601467 -0.47657889476168913 -21.453436765347803
-0.2202048342500027 -2.3138954824260236 -5.295642584894009
-3.8389061276545133 0.046668890706703464 -21.76306034449932
-0.32256329501554304 -2.3285183737461743 -5.761764724951883
-3.281930083056496 0.5116050605946059 -19.225140274533842
-0.44197214092478654 -2.347623156265719 -6.305541329979053
-3.279882523102043 0.98487953393929 -19.213921024589663
-0.5656420834714664 -2.3454668361600444 -6.868633734807278
-3.479256787221467 1.5225368291349954 -20.119571173491615
-0.7155379947599128 -2.3529272623618307 -7.551178094967263
-3.364929356202091 1.9659924104818345 -19.597234589959438
-0.7489442252646961 -2.186786779102473 -7.702618636914854
-3.5307414715031964 2.545186984581166 -20.34989517254185
-1.2273562787553278 -2.5018352574684917 -9.882216111387365
-3.3328339692678624 2.9184411307397977 -19.447273557485293
-1.1211384353350626 -2.1373641458514943 -9.397116884912048
-3.3963100706036986 3.4535250854219206 -19.734153957486335
-1.6683297948953315 -2.367895708000294 -11.889545367067388
-3.467612426795548 4.017179519146444 -20.0565573527905
0.22405121029297914 -2.3275230531949576 -3.3242316957232836
-1.6185764371861595 -2.0495431463571037 -11.8263263615582
0.18056403711284774 -2.3194915892146315 -3.5248802765617686
-1.6332289880880129 -1.7587085979105004 -11.892768583010389
0.13455438450341584 -2.309462069544438 -3.737162251486761
-2.0590702770607496 -1.6900996684296221 -13.857632446806589
0.0760810190793979 -2.3191751554210556 -4.007039692054206
-3.091094178290259 -1.7875580133488702 -18.620529454759446
0.011588031546814426 -2.328328740999136 -4.304693584758821
-6.741310098708824 -2.5030308644739945 -35.46814992202034
-0.05226881272516937 -2.322931089117296 -4.59935351161094
-3.711249280858894 -1.004204913629829 -21.47921417728219
-0.1267731380726398 -2.3246884728354895 -4.943177607787954
-3.707334362039446 -0.4763541019938749 -21.459018372883264
-0.20471894735525065 -2.315329373082611 -5.302837742520221
-3.6728479045185765 0.04581629183924666 -21.297762464114093
-0.304986878127419 -2.3285029552364076 -5.765599625360222
-3.238589219484105 0.5130569314690453 -19.291895078548034
-0.42127299903818916 -2.345059351701343 -6.302295007851708
-3.3330389224884938 1.0097254923888193 -19.72575190373699
-0.5449742085373146 -2.345448706744208 -6.873142638399201
-3.583409195072715 1.5774354194419136 -20.878852889271812
-0.6925569469149726 -2.352359558829214 -7.554223107906244
-3.226852377782161 1.9292844544933663 -19.232017560134317
-0.7370031926867031 -2.2003455460025654 -7.758717486094376
-3.5111039612988897 2.5669480949419574 -20.541190769519027
-1.1929163339235218 -2.4958620406273053 -9.863823884443034
-3.374341200088021 2.9839170915561826 -19.90838719867988
-1.090094005397052 -2.1340421474475133 -9.38786581136664
-3.3212778127628093 3.4391475344567697 -19.661675296342718
-1.6282286039103544 -2.3630986843010113 -11.872133076063562
-3.4958527669947674 4.0942617180623655 -20.464648812370616
0.23657000250418891 -2.3244620803583596 -3.3216403643653796
-1.579425119025052 -2.0475876561732678 -11.82263312308159
0.19187428931080586 -2.321433957081019 -3.5308840943364634
-1.6050365873551729 -1.7644446536943825 -11.94138924847787
0.14685365674436257 -2.31038688846962 -3.7416164924053783
-2.009722842774875 -1.6864046868720401 -13.83573217698114
0.08917673428932671 -2.3200577524984385 -4.01168692991196
-3.0429814121549423 -1.791332309816341 -18.673664589070935
0.027072062677491182 -2.3257592462015846 -4.302472027843655
-6.636961811774031 -2.5037524455391464 -35.502840386025476
-0.036660793344166054 -2.3221077286060368 -4.600841207822643
-0.10860009307579577 -2.320837159092751 -4.937641870680882
-3.6445621507382686 -0.4765535778554383 -21.484797649687042
-0.18779289360533813 -2.316038249164592 -5.308385861233772
-3.5959295599999095 0.0457652150750321 -21.25498468831475
-0.28669089387714064 -2.3291672126178393 -5.771459045156112
-3.455401657640971 0.5461930592677438 -20.59502733217105
-0.40059632387936306 -2.3444050434119994 -6.304804244598459
-3.1585404393538976 0.9832353217395818 -19.203410907234982
-0.5245927137910769 -2.347798392804625 -6.885343276433401
-3.388545582918735 1.5323792031712624 -20.2780176594636
-0.6693623222968976 -2.3534342080130073 -7.563148304927605
-3.1178276974821646 1.9064090004823537 -19.009049547331404
-0.7212844600590727 -2.211388139456113 -7.805659777858471
-3.476754093546127 2.5830496731710837 -20.686720060951423
-1.1580022413237059 -2.4912602395762358 -9.851420288667349
-3.3297834950250262 2.99496834976888 -19.99696070070659
-1.0557514281678773 -2.1290701714357003 -9.371232119896883
-3.329766145119029 3.493631241527166 -19.99485026215262
-1.5877225365061223 -2.359766560640487 -11.862749071901387
-3.37107096086517 4.0374764232691795 -20.186023278835396
0.2504815250623251 -2.317333209301138 -3.3122668731854756
-1.5374751016243084 -2.043388337519076 -11.805294347860274
0.2046470264806013 -2.319470683136116 -3.5300241950715368
-1.5790265700095107 -1.7718286487858514 -12.001582046064954
0.16062437819756126 -2.3075688446331335 -3.739115976017655
-1.9597157468261905 -1.682252685893369 -13.809777170851312
0.10376235449687443 -2.3173631109414843 -4.009294271866538
-2.993360485042748 -1.794560510542031 -18.72083280003943
0.039185486019828186 -2.3308605564858604 -4.3161383299514435
-6.537821991664398 -2.5062405187929087 -35.56262344477412
-0.020301731939534884 -2.319664282734419 -4.598702052049507
-7.9758812538663575 -1.9596779428389188 -42.39225880630644
-0.09123003518949035 -2.318520981177734 -4.9356611081945845
-3.5812672139394888 -0.47671058734032457 -21.508438276376452
-0.17007836336773452 -2.3152993018406853 -5.310236810376789
-3.5304300209915187 0.04581373708299433 -21.264786252042597
-0.26798535190880823 -2.329151031201993 -5.775425960645084
-3.323076426599359 0.537774740848961 -20.27768142464673
-0.3806980963793698 -2.3450241296778502 -6.310961237893121
-3.106945758324228 0.9849328717250747 -19.24906820326881
-0.5014024893047468 -2.3460028042855394 -6.8844023945305235
-3.0854939054623474 1.4483645213987741 -19.145256895802568
-0.6457350709363114 -2.3539610808400417 -7.570124903254792
-3.0803212193311627 1.915933284250629 -19.118766652218817
-0.6977360956740069 -2.212875397480272 -7.816590055588991
-3.206658109716047 2.46369391371489 -19.716719532407264
-1.1219798642177417 -2.485286008222248 -9.833185607752396
-3.093761273038223 2.87403341369985 -19.17869566560294
-1.021527635626409 -2.1240984816247748 -9.354481075059018
-3.213505478627625 3.4490888169304252 -19.745217034278422
-1.5481052666054491 -2.3571682035230066 -11.857080409171134
-3.271069476437482 4.002004175589963 -20.016428814386693
0.2591478027220694 -2.3213925356137124 -3.3211170838062
-1.500753431904694 -2.039834195597979 -11.790788599360907
0.2149274801551474 -2.320437726956394 -3.5339570202796873
-1.5550640995829303 -1.777843107689634 -12.051119469215045
0.1707302465243894 -2.310366299575899 -3.7466469885012783
-1.9173090517744267 -1.6794771399753734 -13.794286419419958
0.11238372125330953 -2.325402034249132 -4.027544751760211
-2.9538758334187953 -1.7994335658175051 -18.784030849122026
0.05555227842899879 -2.3223266659052753 -4.3010758558963245
-6.4538509261995936 -2.509690183221899 -35.63318486504796
-0.006497230471255611 -2.3188426547043144 -4.59972069488279
-7.885415164359659 -1.9644119430760087 -42.521399285782195
-0.07653929175949847 -2.3177413053620826 -4.936846671192752
