ply
format ascii 1.0
element vertex 854
property float x
property float y
property float z
end_header
3.2201175915921656 0.4955156846193989 3.225807542317221
7.181907714762187 -2.0571013097444433 8.16254900501913
3.1778631770388204 0.5663161221495977 3.1730776134608125
7.697855357889105 -1.9748275203639045 8.804730340419848
3.3475818332815566 0.6994719811985641 3.3841323943556847
3.0398801430445364 -1.8723455705509076 3.0188857333589154
8.182716797288775 -1.8510716304651187 9.455847413102605
3.1462634128896125 -1.8688340483273909 3.1520333177637125
8.179473711717216 -1.579269101701573 9.451306958700993
3.76933689673142 -2.296961720305255 3.93265746640927
8.178409203873194 -1.3098729080863696 9.44949745913045
3.9336961623902917 -2.3010283100106275 4.138383894477439
13.436493846139571 -1.8115988977516662 16.031634414758223
4.117880908469547 -2.306844585490183 4.368927960125757
13.279288543488518 -1.3310358864890937 15.834018371119484
4.293219658091239 -2.293672722703264 4.588366264360312
13.295738107911887 -0.8761972492371056 15.853801891626919
4.505474718573885 -2.292450843235752 4.854031863723238
13.253223658784604 -0.41565363159708046 15.799773968076748
4.740538118725541 -2.288629819250246 5.148240728745042
4.1107107059682795 0.012833176293832984 4.3558455440213635
5.021614551377617 -2.29535074249119 5.500060148638474
4.107368608657482 0.12623178452429615 4.351461609889839
5.336689965955537 -2.299524054301769 5.894430005399352
3.1858055224856185 0.16923656643850238 3.1979168258387447
5.607658018934186 -2.2570298285862718 6.233509967797012
3.2215183649869426 0.2527258022827839 3.2424686801715104
5.92497717689626 -2.2176019717380786 6.6306107510669845
3.4361679995150265 0.36638547722606557 3.5109323272629984
6.294198777190122 -2.1768593307596635 7.092672458652018
3.8791525821205664 0.5406824211020802 4.06508250451273
6.690447112852934 -2.1178273439575395 7.58852985345336
3.2155370715442766 0.4960891882184623 3.23455128465011
7.159489225610327 -2.0562480597642376 8.175494110457082
3.158630022318036 0.5630496927393474 3.163205306952094
7.674968838027998 -1.9744297642440078 8.820546353145488
3.304537672135691 0.6886460869075056 3.3456072838798243
3.034654885446643 -1.8743697798808625 3.027451067651266
8.191824066763655 -1.8603390008874874 9.521782669682183
3.139587083045787 -1.8697997718235901 3.1595827580262212
8.189951502099774 -1.58748024097295 9.518941743957553
3.758161650266353 -2.2960116520053275 3.9393000073360147
8.187765405586655 -1.3164734256020816 9.515709304919596
3.9207844210498832 -2.2992238506835956 4.144094299301539
13.394191624031862 -1.8120811738627782 16.072971424440098
4.107632261478901 -2.3076811286362804 4.379404498474869
13.22268827135296 -1.3297470209477726 15.856145566002395
4.280058056440031 -2.2928451847819735 4.596511618366512
13.227877006678888 -0.8745178108448551 15.861874144144348
4.494956582747167 -2.2939680498261663 4.867132600745305
13.189233468044767 -0.41494483832450907 15.8123982881749
4.729167863539934 -2.2900591876306238 5.162064880986916
13.209821728919932 0.03800037001002716 15.837523148360965
5.008050307810388 -2.2960107651769603 5.513268300093888
4.07365199360858 0.1253503920615352 4.332308613516295
5.317250287763521 -2.2975906933337336 5.902642596972711
3.4487348229934884 0.1903057631600899 3.5452435527666437
5.58718362643138 -2.2552286356633426 6.24249140282219
3.2221607802196575 0.25373770880677127 3.2598096735686575
5.90688582561598 -2.217576462741296 6.645021550360744
3.3963691655975596 0.3616678800059336 3.478997037263823
6.277141321707687 -2.1778385197533745 7.111209089475373
3.1929652620203575 0.4117631223475736 3.2227643883120782
6.671930200688416 -2.118713342254263 7.608257004130683
3.1681059069649473 0.48708462916292133 3.191326192778252
7.134374344874205 -2.0553911952402584 8.190494674117204
3.1360945273869625 0.5591291808464819 3.150887109660155
7.646704028640081 -1.9732944150727854 8.835519665692892
3.150748500799592 0.6441902286479695 3.169190224727675
3.0287652441987367 -1.8753771526994816 3.0343107464262173
8.196066861829745 -1.8680042207918661 9.578856131437178
3.1333426554674544 -1.8707661748476896 3.1667533919534305
8.20657775966296 -1.59679292090016 9.59168892602391
3.745375789478409 -2.2931907857714084 3.942660191869298
8.200830396330087 -1.3235336701532945 9.583926668194948
3.911817737728926 -2.300104549560823 4.1534767408505955
8.04682083887882 -1.0282428835612851 9.388346314267537
4.094658724706558 -2.3059607144633536 4.385061218232856
13.162558452927243 -1.3277819715683807 15.868126335190382
4.267586300682149 -2.292019202840833 4.604054997825111
13.17265883126714 -0.8735605550647553 15.880115662965595
4.480572884416168 -2.2924158475951413 4.873810321153347
13.135377725934537 -0.41449822055216357 15.832086083115248
4.717401579931251 -2.2907653044253204 5.1737586863786005
13.15093395109142 0.03801555918321507 15.850989109540583
4.99298347448795 -2.295310506842055 5.5228001595077805
4.040734495899784 0.12446776856747828 4.3124676784598615
5.305782615918712 -2.2994806192744788 5.918978175010036
3.1654826130854685 0.16887174637078994 3.2038539680350566
5.570059756388254 -2.2546137874349235 6.253614739553738
3.2479240706595816 0.25760784922011193 3.308111896253515
5.886244308715105 -2.2159085775931677 6.6540044204610815
3.4189879264562055 0.3664096208101443 3.524577560429082
6.258771472296115 -2.17781279416745 7.125754926525395
3.1866817756873607 0.412009371461611 3.230273473027828
6.653376945610422 -2.11914366116853 7.625432188318483
3.117724965381015 0.4772337201285304 3.142822186677755
7.115411682151126 -2.056186115570601 8.210503053156218
3.1018761431640174 0.5519314608911372 3.1226169762194274
7.622294736618023 -1.9728950545254738 8.852339906566776
3.1531249887207577 0.6471899898366276 3.1873569707918215
3.0196645575733543 -1.8733331121027883 3.037092745328587
8.182980078182235 -1.8711773043628268 9.614284024820666
3.125996429960032 -1.8707559546133625 3.1725370480423956
8.22162599350105 -1.6058305155515464 9.663043720778386
3.7347720765108194 -2.2922417026772335 3.9487590738743346
8.213566130215398 -1.3305936856393326 9.652290372476566
3.8995073941329723 -2.2983011270841875 4.158614997774899
8.090937190334454 -1.0384202914267047 9.495565939550016
4.085025262488693 -2.3067985647903244 4.394948479001894
13.172671806776233 -1.3335734932200984 15.969361439947926
4.260737565968526 -2.295244494633073 4.61875594843908
13.19144347393581 -0.8779870453947106 15.992468759379621
4.463897335332601 -2.2893282485946114 4.877536747127528
13.153111494089966 -0.4165445469219692 15.942825400655666
4.703296130745446 -2.290023075920398 5.182491949127035
13.124167239442176 0.038119928056789265 15.905152621243905
4.982533940745593 -2.297333476805252 5.538206663710019
4.026469555959464 0.12433286018178645 4.316064231959352
5.286063520723408 -2.2969116676386645 5.924851639169961
3.158021152257559 0.16888212688074516 3.209728327591744
5.55998025914989 -2.257553911917311 6.27370609280115
3.241402696171586 0.2577615932711462 3.315785449677867
5.87389936495244 -2.218076912356451 6.673516521519416
13.120806880575925 1.8606477347725463 15.897652365046124
6.2355787690063424 -2.1757744341355187 7.134160182255211
3.1754652291136516 0.41131266313876214 3.231520943083475
6.628758444626014 -2.1172848723936024 7.6349018324043385
3.1141010332594776 0.4780891323630427 3.153235528475723
7.093964769978661 -2.0561562767687196 8.227388805210776
3.0885466527646877 0.5503033437842738 3.120555830752715
7.595411455543272 -1.971761850293606 8.86599813902627
3.190608512189188 0.6610268343152054 3.250370004358926
3.0158581607159807 -1.8763751277187377 3.0466328247308865
8.175827399592901 -1.8759547598929056 9.657487635115823
3.1197084005715174 -1.8717224320712704 3.1796754186554765
8.24486667377634 -1.6167924170072145 9.745482226408814
3.724156619172791 -2.291292453139639 3.9548236697721264
8.205200713823372 -1.333762734685219 9.694163561968338
3.8937914776831795 -2.301865623825656 4.1721754662553865
8.133287667206938 -1.0484146514641994 9.601525984246102
4.073136929991337 -2.3059308712918107 4.401956726997661
13.389790658500411 -1.3623604442213868 16.336613668479423
4.250460586899963 -2.2960393045171457 4.629122732655782
13.160532334897866 -0.8788245322355921 16.04203825677245
4.456315119280339 -2.2923822114042123 4.892853281434391
13.144491087795323 -0.41768819382142836 16.02067278603788
4.6880257726654575 -2.288556506301963 5.189709983351479
4.102861924739351 0.012994062748797231 4.4359471823028125
4.9662495038763685 -2.2959526106652266 5.546178061965889
4.04173621672543 0.12539479399758985 4.357435780668585
5.271010941229976 -2.2968908644583403 5.936634304270823
3.140710870339574 0.16811955021564357 3.202983474582027
5.541603112951829 -2.2563469748884395 6.283240289934011
3.40425970278341 0.2776432573315283 3.5404442182107623
5.848472262334511 -2.21421740914748 6.676320960353076
4.095729696230091 0.4735316003047074 4.425996750316154
6.219525903966602 -2.176755079601256 7.151641842841884
3.172815248651075 0.41226603132324613 3.243684166117727
6.606529961091816 -2.116341976453518 7.647357748075624
3.1055620325598436 0.47781747800568175 3.157405036397247
7.062844081288438 -2.052826941380874 8.231866575186247
3.08495977815428 0.5512962399335988 3.130879987172136
7.569716617935091 -1.9709959396262977 8.881117835538674
3.2144555170660976 0.6707534446384918 3.2965767567037894
3.0115744245193636 -1.8794165536905187 3.0565120178541747
8.158421557667433 -1.8784842711718064 9.69104263672342
3.1107965912213285 -1.8707350215654301 3.1843986791545387
8.404479638351697 -1.659092664837093 10.007836670717213
3.7129313203183782 -2.290342693724596 3.961319035807236
8.251063636885743 -1.347457348340105 9.809526488161577
3.876429286903626 -2.2964830162597245 4.1720867376914885
8.727670162039281 -1.1411888882138954 10.423531789306407
4.064990928590874 -2.308472795628915 4.415172854992352
13.545873381239497 -1.3848825619221334 16.634855662930235
4.240555060674154 -2.2976430404262422 4.641464420894853
4.44451745682294 -2.2931320786507263 4.904373717181352
4.676499357393902 -2.289986170741172 5.203404056047883
4.079017023345641 0.012975382002948914 4.429159964205946
4.949075612282569 -2.2945706568225583 5.554775920733612
4.054893876026432 0.12640795490526774 4.397863950431007
5.250335549201904 -2.2943211189734494 5.943113690422699
3.1352354321105667 0.1683236751058927 3.212306280521669
5.526884262825308 -2.257508332454357 6.2995335182216765
3.471151081568789 0.28651918497500944 3.645109428561294
5.833780946222458 -2.215836084476105 6.695064587505432
4.024362906096818 0.4642753704072919 4.357912326044727
6.203445339479278 -2.1782377612382993 7.171513437833835
3.162333120481401 0.4118055891712045 3.2468073655182645
6.592575710387159 -2.1190596488530935 7.6730169832975355
3.1026269217926554 0.4789552835726945 3.169724701994227
7.037596935075393 -2.051970742805932 8.246552305623638
3.1159550142665156 0.5617917468181298 3.1867592739829558
7.544939154328554 -1.970961929447193 8.900397908289923
3.2134775858840063 0.6730068569114362 3.3122743809782658
2.9998937733473996 -1.8753373985232038 3.0568378350122436
8.132439100658107 -1.8787680423049746 9.713633593117265
3.105068139971623 -1.8726775894980872 3.193241700731974
8.464634133513172 -1.6791230379843376 10.144131178203963
3.709238486290026 -2.2959440660836914 3.9775818660181663
8.15074110957005 -1.3336882450097856 9.736410557824078
3.8689140391261736 -2.2991521917553754 4.1846830697317525
8.304329195803302 -1.0820726951994715 9.935167474617275
4.051271280453023 -2.3067522410631094 4.421209575026387
13.56749531537415 -1.3925725684376713 16.76191648865777
4.229486872345789 -2.298436988843111 4.652336173973114
4.431552240253376 -2.293114407076206 4.914400810135744
13.714111844012175 -0.44084526538746266 16.950398401840545
4.662645757874251 -2.2899672886473676 5.21411803993607
4.04546800357044 0.01292878311820123 4.409596488501395
4.934178237026599 -2.294550352072011 5.566297140125358
4.010455730987936 0.12507669462093213 4.363988659949582
5.236598478320557 -2.2955732200281305 5.958531004949086
3.1236226855003553 0.1680446325345597 3.2137116154266994
5.502779138004506 -2.253930491187894 6.3036876508825905
3.4606931678427673 0.28638881829792895 3.6506756943662246
5.813147620299091 -2.214715376572836 6.70615933418063
3.982607714152687 0.4595600464237658 4.327281506443505
6.171928784195817 -2.173179235837312 7.171416706964752
3.7328261418948907 0.5242656184566165 4.003206493020836
6.564254353192505 -2.11628415071305 7.680153657476619
3.0923796180576195 0.47840235572667017 3.1726433913811434
7.0135072379769134 -2.051527122763475 8.262709871390296
3.0972303655025977 0.5588535387712033 3.178792947049143
7.517700856362648 -1.9701943568295455 8.916493526620021
3.182424190101667 0.6659176972772338 3.2890988156482317
2.9964377940611016 -1.8783800841781921 3.0660120584789445
8.104794384736094 -1.8777729008009956 9.727418981191997
3.095991134033598 -1.8707149039179132 3.195818338608258
8.43343791762912 -1.6777144940341977 10.15562489447941
3.699155881337642 -2.2949958051033277 3.9831050782521786
8.286208373668895 -1.3638642843037583 9.963081730646403
3.8593636008528662 -2.2991392608191314 4.192026688172556
8.725657675591018 -1.149136069498114 10.535755558420467
4.038900793021974 -2.305033379118196 4.426157459756181
13.597828773326919 -1.4006780327711308 16.88961442666048
4.218710891438704 -2.298422398575378 4.660622145255004
13.743574428842056 -0.9314764885384276 17.078844339372367
4.423459419980344 -2.295401696186497 4.927613340275917
13.752621025294133 -0.443664859713889 17.089782354797688
4.649263750463823 -2.289226285477205 5.222056332851974
4.034098924795258 0.0129390588988837 4.415815963698738
4.931301722583812 -2.3006595996678167 5.5898600001425205
3.959053829510591 0.1233939827957244 4.317760977943601
5.223552917107692 -2.2961908591941453 5.970954212162445
5.486513697369546 -2.253317547808049 6.313784886459329
3.2679908404403823 0.26466771443154125 3.4163513174489077
5.796989554929659 -2.214693498003865 6.7185843235048806
3.965398363249405 0.458438046987254 4.325444691908761
6.160439141740076 -2.1756716335091433 7.192461954148779
3.740658817247475 0.527578382974176 4.032257541816332
6.5431741789847395 -2.115343370311395 7.691450186545781
3.131262285695337 0.4891194568014398 3.2376591506436623
6.996840766931713 -2.0527369406063736 8.2829313892513
3.0878989994564163 0.5582075759486143 3.1809909351509837
7.48976885769851 -1.9683301304712877 8.925571752717254
3.0819217124201463 0.6367777679448021 3.1730580905749055
2.9864053251152898 -1.8763351160060528 3.0693458849023276
8.078289125549228 -1.8783757937654517 9.75264954613119
3.085521894921568 -1.8687504114082432 3.1994270079240676
8.406792417825397 -1.6784984333516602 10.183471425414183
3.690467963304573 -2.296853122167349 3.9941956046523637
8.299906539985544 -1.3720629669287778 10.042640894981407
3.8467944539898573 -2.298229278804079 4.199382648910564
8.690591509249227 -1.148546869754432 10.555037694904206
4.026678557590791 -2.305016943972471 4.435499652962751
13.618949336908237 -1.4087715012929665 17.0241607672504
4.203536152756945 -2.296784360412993 4.6676177209622285
13.78477681972719 -0.9383129082637219 17.24098903385008
4.404067065720949 -2.2915451545516445 4.930813213744902
13.791437987064574 -0.44681572921896656 17.248868141121047
4.630021395179371 -2.2863095476633517 5.227378153926089
4.043711410277317 0.013018056641771672 4.453779874507531
4.8994721030006225 -2.2911074472808406 5.58105120492735
4.000473299326804 0.12560548141898215 4.396830238707888
5.1984332598421625 -2.2917094046919475 5.9734509497999975
3.7764845132934335 0.22141075678743166 4.102667598591178
5.464882583799045 -2.251515666366057 6.323105627972445
3.316964149950423 0.27154302159954974 3.4994407877749927
5.775226301184385 -2.2135716064871076 6.730377222580935
4.017434742996487 0.46848408568645833 4.418489845768179
6.138342728024527 -2.1751402241423214 7.206914541784639
3.7224346871221643 0.52617866419364 4.031189294755337
6.520680598651012 -2.1153131246117196 7.708642776065117
3.146764744474181 0.494766668259897 3.2756546812835206
6.970115331996189 -2.051879391778123 8.29843278178347
3.073594860869287 0.5565804303705842 3.1795076350313383
7.468157173438364 -1.969762050734283 8.951987774557992
4.263462495916637 1.0101356703243487 4.7404586375183255
2.9812559206819476 -1.8773440454825323 3.0754218552608785
8.055752299112074 -1.8783456909484249 9.769776096162978
3.080068600720206 -1.8697183434054192 3.2057636511989682
8.3796119808525 -1.6776423240867533 10.196664105271317
3.684153043489782 -2.2987137061676854 4.003434850824717
8.317459474215791 -1.3798125117279791 10.11414818222473
3.838923483539361 -2.299111854716974 4.207611085210093
8.660074333787348 -1.1476024792132213 10.565722494102861
4.018242105928191 -2.305856513819644 4.444182744450839
13.655760791210904 -1.417424187420215 17.15658237321341
4.196751969161808 -2.2992017776348703 4.679663690819193
13.85012472566794 -0.9461509420142349 17.412162422489956
4.401132134067912 -2.296904193132942 4.949281311717059
13.837524503444385 -0.44985284722371954 17.394668262571525
4.619681598417581 -2.2870184020565114 5.23757770128025
4.903037916576118 -2.3006217041511 5.611409215279923
3.9898193105846635 0.12556819187049179 4.402414850203145
5.192011160533249 -2.2955132505155307 5.992618337697007
3.4925978573004226 0.19938732222800032 3.746343080708181
5.450736922148687 -2.251496770278581 6.3338561626473355
3.3434584345242486 0.27555633534168883 3.549462328090186
5.762406967303302 -2.2146471310589195 6.744950850632573
4.030789776914551 0.4720925533143278 4.455855053396957
6.1232037181836825 -2.175621710054187 7.2208509110877
3.7126813776177343 0.525954351958963 4.036106939180237
6.498442680079012 -2.1134588506284318 7.715762794804785
3.1328814222044965 0.4930848753611338 3.271283790584069
6.945227735694062 -2.0497920663326714 8.305056356500765
3.0695089109493443 0.5572443832762711 3.1875690224365187
7.444018094233953 -1.9686340385129246 8.962925646243248
4.229427596376383 1.0026748743611402 4.716968496703063
2.9722442837767704 -1.8763162718521438 3.080072381783551
8.024345597146734 -1.8776654437092584 9.788555072765192
3.0758784745638357 -1.8736136894373627 3.2176790673202706
8.359959637249814 -1.6800759888466832 10.233856354688848
3.667947688195704 -2.2940197283973336 4.004601718720158
8.332754320778534 -1.388468418228142 10.197219934159687
3.8263132846246046 -2.298202024761604 4.2148962601211775
8.62613874881712 -1.1471961256485992 10.586369348589358
4.007051271317629 -2.306692989218534 4.45490585943467
13.674308970428513 -1.4253807599659964 17.290118546760112
4.182633164488455 -2.2983742077635827 4.688039500674289
13.858345962569214 -0.9506542177102193 17.53366057478064
4.383933440090638 -2.294582796703818 4.955331405778956
13.847050601650839 -0.45201504713975693 17.517786555622873
4.608269921854847 -2.2891715293127852 5.253209036692052
13.814299846500298 0.041443662852043685 17.473431486903696
4.87804195838951 -2.2951543592981074 5.611438966746193
3.9764537762079275 0.125534425396716 4.410007698659529
5.168022471093248 -2.2916689367764036 5.9964861438667665
4.082213091460905 0.24762994949127787 4.550226708475865
5.4256224371105475 -2.2479182123779555 6.33846602132031
3.5308102412158213 0.2990197662197989 3.8179512220847793
5.735951159306975 -2.2113337861731113 6.750474692492593
3.986112182361671 0.4669989239684262 4.42223332560253
6.096370370809056 -2.1730779927164865 7.228993266607779
3.6933031890606207 0.5243185763448729 4.033323446296539
6.48055592963483 -2.115259728982902 7.739036594107312
3.113550965161445 0.4905600523722897 3.2635533741966167
6.918450107430665 -2.0489346460826976 8.32038214649499
3.0659128797074935 0.5585662208310158 3.2001772617873905
7.41397751222789 -1.967498384515817 8.978229508327429
4.242279882175463 1.0109143885323983 4.761433350360436
2.964554758325213 -1.8752901944952487 3.0836937800616044
8.000108930610551 -1.8776335060906029 9.806758624304294
3.0646780985901145 -1.8696979868870665 3.217360455183555
8.367801383039543 -1.6877392681694317 10.297338334869064
3.659928077512955 -2.2949435709564034 4.01283531585575
8.349125695646464 -1.3964440031117815 10.271893500026003
3.818827487745806 -2.299978615799558 4.224993752200841
8.59741989194865 -1.1467968120358483 10.60295762969941
3.993541374845912 -2.3041219000502786 4.458264485568324
13.706962350273296 -1.4340285736656808 17.425305294713034
4.1662863030915105 -2.2943084354823267 4.688882351244386
13.816204679006088 -0.950774871824319 17.570309661710848
4.375683410662457 -2.2968705331739567 4.968456905445331
13.812141400629454 -0.4522998002217122 17.56401049420765
4.601504743326757 -2.292776524479919 5.269947795724072
13.701574022346446 0.04130296698513843 17.41552416960175
4.863626042898904 -2.2944561117863835 5.619913556188079
3.96030696147864 0.12529822208191638 4.409632281177405
5.155996401535387 -2.292923780867695 6.010260110677426
4.059715204704547 0.2466772453531087 4.54214132415124
5.411573136484735 -2.248490661322698 6.35140730026036
3.645397763659827 0.3137599695902978 3.988860704577979
5.725440327946515 -2.2140518982125013 6.770396622925887
4.022481351555897 0.47439362809962465 4.492030206955833
6.066082448700321 -2.1675207267655767 7.22511274815287
3.6817530639507634 0.5238590993448226 4.037030825415933
6.460524597010863 -2.1147771692540727 7.75164715105903
3.107587086637987 0.4908512897878829 3.2705092933330695
6.898061467020708 -2.048907779690709 8.335695281140898
3.0624763980298013 0.5595585163176156 3.2101606873345707
7.3918644050348625 -1.9674692458266687 8.99483779675576
4.211171797136898 1.0045754770639057 4.743024446009534
2.958605451901305 -1.8773141999643652 3.092433114645355
7.9662450736902946 -1.8763124214468483 9.822186340922691
3.0562538622687083 -1.8696869639678633 3.223649223797522
8.379671026800892 -1.6975947643022136 10.37747507694838
3.647950142126991 -2.2939934776476867 4.019571680954736
8.364758088852 -1.4053280915105728 10.356921545168852
3.808303526647033 -2.3008579643147224 4.235082406761879
8.561003769980703 -1.1460261781941596 10.620201272895166
3.9866132443359517 -2.3083681241986125 4.474725549444389
13.730070974419496 -1.4426644211245028 17.567418324107738
4.158690685744321 -2.2983427794168367 4.705962151204909
13.872351315155388 -0.9589543863465033 17.75778081900612
4.362855656076014 -2.2976198809985657 4.980337961504119
13.887491846712834 -0.45686521809860026 17.77724820700024
4.595525204234042 -2.298550751489681 5.29302364516324
4.845403286675695 -2.293073738810318 5.628824506646412
3.948119572669838 0.1253141691013438 4.4187303273743845
5.134264958720569 -2.290353683217117 6.017020308153789
5.393292940032597 -2.2484667417169386 6.36505382436629
3.8834519747087493 0.34366226522215937 4.331441299094501
5.700103074800138 -2.211286728805397 6.777310030887145
4.034996202933864 0.4783845952316786 4.534865109528434
4.7986782881920975 -1.6246321603390046 5.564859871380641
3.731211569618198 0.5358982128008442 4.126508717200092
4.792636081028013 -1.466628899592736 5.556462978897024
3.0895224637778878 0.48860805020999726 3.2642273872583285
6.868866748071438 -2.0472261839636032 8.34772145051237
3.2637571247391524 0.6178992305232738 3.498154354618422
7.364094170171019 -1.9670673813748119 9.01311598465377
4.2120089460246515 1.0090777863576248 4.771822304198386
2.950314069607674 -1.8752716143316868 3.0942982364046903
7.945891996264567 -1.8769243736607406 9.842209235246374
3.0486513310209693 -1.8687018281964451 3.227118283101915
8.385073322559254 -1.704435397560821 10.43514298631035
3.64364464241486 -2.2977258345052145 4.031572230102698
8.383298795069472 -1.4135343864754566 10.432236744912492
3.796076335232338 -2.2981624492095145 4.237473937197748
8.532791879560236 -1.1454471816389755 10.633699341854705
3.9726880278384407 -2.3049458019727673 4.476048874975019
13.769152495993117 -1.4518592285358511 17.707387467628422
4.150677611167073 -2.2999498576435564 4.7164641917171535
13.93841235221135 -0.9670590889237918 17.935170686934917
4.344309181545143 -2.292232536622131 4.9780034623252645
13.925038751360564 -0.4596857917270294 17.916217757775204
4.559511890427553 -2.28260296499052 5.26867748476875
4.832958655420026 -2.2930575637186648 5.638061092801723
5.1208709972637125 -2.2903362742607714 6.026961480703472
5.377911466025973 -2.247855766060007 6.374091373747829
4.04154630288915 0.36383874449351616 4.564389113247446
5.687137429236112 -2.212362607027459 6.79172419131035
4.044170695738608 0.48142570443528254 4.5677283717756305
4.786386777014275 -1.624616184094482 5.573982894831488
3.8571644656824766 0.5627889129613763 4.31498223020544
4.77573194383737 -1.4647819556385646 5.559310792704483
3.1983276700294114 0.5162349044987111 3.4251227327683837
6.843951085566537 -2.0451395078665575 8.354027795533913
4.053793688703164 0.8404170769432247 4.580098282840527
7.341032614487015 -1.9663068107721717 9.025336080224188
4.20982957662794 1.0117074596654512 4.7905682046537255
2.9427240834857114 -1.8752618138694894 3.0998997257792222
7.914748055677722 -1.8759264597686853 9.85783399680887
3.0417003244162126 -1.869668115515058 3.2344176897509582
8.397930189647841 -1.7142925824864201 10.514288288631302
3.6332728093590516 -2.297712442808467 4.039226364283698
8.395112446208884 -1.4215048695679806 10.509946610194483
3.7692031787876523 -2.2847297307756698 4.223959294815729
8.506341677884944 -1.1459553852542455 10.660646618555873
3.9588527154581286 -2.3032256898189627 4.481761740558058
13.795003854681838 -1.4606339837676472 17.84950170599375
4.139353960141893 -2.300744112914086 4.727093103960779
13.963689658384666 -0.9728201194840017 18.07792508155974
4.322375636388052 -2.2860747567209274 4.9758288212037955
13.974129210161157 -0.4632665402015969 18.091223156687825
4.557610826527142 -2.290551104456707 5.295566440803114
4.821156374355982 -2.295080171474732 5.65378348149718
5.104571673329157 -2.2903152276417456 6.038990724080914
5.3605806544457675 -2.2478333881268457 6.386881580082906
4.022481927713347 0.36299615301620347 4.563583213911766
5.665147585845474 -2.2106950873055147 6.800781351742731
4.085292682785416 0.48995876422008644 4.648733214143759
5.976616548563072 -2.1533589978161496 7.224027316081183
3.570476095390707 0.5076287002508985 3.9489680779370167
3.6521575322849733 0.6272845190122751 4.059779362044978
6.819578340558787 -2.044697166238736 8.369583938132196
4.0686720289895355 0.8479697921317734 4.625516469548338
7.318153972692484 -1.967007884274703 9.04710781150459
4.182042134473828 1.0068649582032831 4.779330126624823
2.934550876816491 -1.8742355902330252 3.103759859151531
7.894525999591105 -1.8774967092461379 9.884908838150588
3.0351963879596564 -1.8706350486738104 3.241353355571589
8.413311393781694 -1.7244267536427953 10.593910395966047
3.6234919715445972 -2.297699901699604 4.046401219942857
8.416496389336661 -1.4310789182312558 10.597752186737482
3.7842333642750594 -2.3061862032023837 4.266177361296293
8.493329559640438 -1.1482887430359465 10.702302425854846
3.9478351195373085 -2.3032115626192082 4.489843985731375
13.829068537308727 -1.4700922337897424 17.997741846876938
4.1287296361906325 -2.3015393742978825 4.737155076632483
13.983069130221994 -0.9779570527461672 18.207428070040628
4.305618144796762 -2.2829883822049104 4.978959989281133
13.994704605543449 -0.4657349402342088 18.2224399922549
4.548718465578733 -2.2934308447326486 5.311338093347313
4.806862572765419 -2.2950618442435102 5.66426865401638
5.090319636906101 -2.2909323394741086 6.051796359611172
5.341982932394328 -2.2466277739525107 6.395786105797467
4.01122033189065 0.36301059281260956 4.57184431862863
5.6453771491983495 -2.2095769661030724 6.81051344328759
3.9550578130098195 0.4708556216260813 4.4948718429463845
5.994487857633554 -2.16943427126687 7.287738232253969
3.3357742106417447 0.4623682744723764 3.648219129943663
6.378360491080845 -2.1146707155961746 7.812462781981622
3.8621099745061898 0.6802810710337213 4.36743031515614
6.804621861806472 -2.0471432633635485 8.395117745831925
4.005972381433466 0.8335651886067956 4.563847370951041
7.290892264543948 -1.9658769737991546 9.059791341008506
2.9243456779289065 -1.871174979062516 3.1048085629451494
7.8602739195438245 -1.8752181531459027 9.892786139022519
3.029693353982783 -1.872578603869564 3.24968684518246
8.430629628385004 -1.7351103939429353 10.6769043073488
3.6157672562905603 -2.2995592132707587 4.056410812748894
8.436275269385808 -1.4404240436613323 10.684154343231352
3.768559897493877 -2.301699985309714 4.266537345841103
8.471940176719496 -1.1493462233614942 10.732693010483876
3.93572968077431 -2.302345001932348 4.496433409116027
13.855353584044318 -1.478733735981944 18.136627500330114
4.119145219968906 -2.303144957890093 4.74867091821835
14.02884280998935 -0.9851555448310255 18.374351507712554
4.293208418401761 -2.282972578064827 4.988010180719652
14.011111522018771 -0.46807427858750356 18.34906452326987
4.5320922702301765 -2.291241224766333 5.316541557336294
4.791431535964915 -2.294362889638964 5.673194851239182
5.070453098183834 -2.288365219680324 6.056899357652737
5.327858105177378 -2.247791571350201 6.4108163721142235
4.019880351473571 0.3654564197478026 4.607502246927033
5.628977579364882 -2.210102474447517 6.824854787650927
3.9393011438451166 0.4701125385080759 4.496505692279901
5.974484855900458 -2.168907254912862 7.299930378539857
3.984773807472073 0.5951352484713708 4.558822268325412
6.358028344445258 -2.1146448213355193 7.827290994214345
3.3167873122082208 0.5509324038840382 3.6402732121488683
6.7792081323833155 -2.0458779939190177 8.406384505887013
4.0225597621821505 0.841444718015957 4.610356033297409
7.270539731983687 -1.9669470393336204 9.081933986244602
4.061191315898315 0.9754989281965626 4.6632489429064945
2.9217646429299693 -1.8762511169152132 3.11731397897139
7.834805502563772 -1.8758246689273657 9.916125661177803
3.0165359114070585 -1.867685391317528 3.248446425983068
8.446922840492693 -1.7460662578612147 10.762965471509423
3.601185702285659 -2.295802672980246 4.058248448433254
8.446865138780668 -1.448393759997711 10.762366410989383
3.759586445095694 -2.3034752054169747 4.277461643397156
8.473153416468932 -1.1542291122066748 10.798232236966527
3.9271562911609905 -2.3048876175624597 4.5093521749585825
13.886056199866829 -1.4883230592935255 18.289350471638727
4.105575360048259 -2.30231889263992 4.756249330414306
14.047245723700598 -0.9905566309381558 18.511541477475067
4.279997835818651 -2.282955871266492 4.997586624514978
14.043697962994791 -0.4711385732787761 18.505726760854827
4.517905889514256 -2.291223283981762 5.32682533471809
4.779488573156412 -2.296385723221687 5.688820207985589
5.054067916129004 -2.288344497850079 6.0687772220747975
5.304829381057251 -2.2448075738669817 6.415712529789586
4.041671617957382 0.3696197008689169 4.663158457342356
5.609184744151763 -2.209531038297665 6.836826952350934
4.213281235767515 0.5165054695463082 4.900380958830343
5.501072845028377 -1.9676470208385088 6.686796941004889
4.029829308326546 0.6067048946810857 4.64635746480901
6.334104109859596 -2.113702116527904 7.839824865208502
3.306402506432393 0.5506622213439414 3.6453556177419864
6.7558433978706836 -2.0458484444107508 8.423322374131386
4.089050260262825 0.8637452564694134 4.727860930640488
7.247470347768372 -1.9676487799705977 9.10351375955445
4.044321305716069 0.9740193922553845 4.66577140686537
2.9185738659083387 -1.8803105492057324 3.128102404995672
7.805140277149397 -1.8748293611390605 9.930198156420799
3.0089632728993907 -1.8676758822734907 3.2539025071287306
8.449545653379671 -1.7534512567636218 10.826999687313567
3.595473781279644 -2.2995336377046502 4.0710780065544
8.466966545877781 -1.4579669309169954 10.850734863856703
3.748096932311622 -2.302567603464702 4.283534799775107
8.48165348734797 -1.1600255248731808 10.870660172788572
3.919226128245067 -2.307431146881943 4.521755255014862
13.920253095681742 -1.4980518418288886 18.441785285765622
4.085261288679775 -2.295822311586694 4.752856332098041
14.085593627138817 -0.9973057886217718 18.671067632640415
4.281537464755452 -2.292918766049885 5.026067869329577
14.084463894677784 -0.4744206578833111 18.66858341614117
4.507787327937266 -2.2933790825216955 5.341008641435675
4.767290540932944 -2.297729287820542 5.702244963431775
5.038614145581319 -2.288325093245965 6.079911228548713
5.29063383290267 -2.2459718141419316 6.430649194085754
3.903253859277183 0.3540428489016001 4.494885719366658
5.590461393609127 -2.2089606374207262 6.847945177169057
4.2231521180116545 0.520117578932497 4.939895020404329
4.821194875461883 -1.6723166505852294 5.7761904753395825
4.07048767732568 0.6173309129482619 4.72721674523321
6.310291949188107 -2.1123032758416307 7.849781673971147
3.2769080685318723 0.5455998821919672 3.622677967981679
6.7315241540893584 -2.0449963273270373 8.436019553412494
4.091143368188975 0.8676927067159733 4.755533191086304
7.216651713593311 -1.9654176303990063 9.111179144785819
4.044237181181753 0.9777716311317202 4.690048070832824
2.9153363764149507 -1.884370103366352 3.1388942622674225
7.786916219183132 -1.877041897865954 9.960250018893701
3.0023875741550823 -1.8686431095688356 3.2607592332520188
8.454165589466886 -1.761385573544638 10.894356645733707
3.5866291367013163 -2.3004570901644543 4.079587658305911
8.482009327909678 -1.4666248681526681 10.932831210067201
3.7386707287849745 -2.3034490306793196 4.292487359043717
8.360178136956227 -1.1454089474597517 10.76168002323851
3.9028411086368227 -2.303154856192573 4.522364157342408
13.945572554762862 -1.5068280314916505 18.5831877014293
4.073484240761804 -2.295807623100477 4.7612923556123885
14.130109760518353 -1.004592128429756 18.840709026190794
4.265778622129177 -2.290600510860786 5.0305409063730275
14.11627906334126 -0.4774020262856862 18.820425313781726
4.490034529330794 -2.290465644751833 5.344552558256053
4.747397090789441 -2.294307582878672 5.704927669675552
5.023126814100182 -2.2883057779527234 6.091004619003957
5.277495186564368 -2.247728315537973 6.447109994868866
3.8875449658551373 0.35348447841776376 4.496322490098322
5.570592108517231 -2.207843006161803 6.857445799970057
4.00136768077531 0.4858679291009236 4.655471226629164
4.821172671465021 -1.6788383654397225 5.807160143209476
3.556587570401814 0.5147645705358107 4.032622959137115
6.286463015226852 -2.11090482269477 7.859666680764917
3.25446256772387 0.5422284505217801 3.6095285156384924
6.707175089930141 -2.0441441189347573 8.448647246084427
4.0862221820389895 0.8696738252784845 4.7736196257940104
7.196115351198155 -1.9664882124336607 9.1331446202096
3.231953420677965 0.7157639305312715 3.577708231158488
2.90906615966906 -1.8853782438164113 3.1454729581961356
7.761725588372747 -1.8773299123151277 9.980610188997014
2.999828689851369 -1.8735165254611679 3.2732948084832287
8.429807807045949 -1.7624490853368464 10.92142918453438
3.574691019640289 -2.298573318687866 4.083748817140448
8.601306903176331 -1.4961011987604713 11.162529069085773
3.7219734409667202 -2.2980687166515916 4.291200583654566
8.496455859248425 -1.1714355858852064 11.014278089155356
3.888570669289547 -2.300583876784329 4.525863420255361
13.972521126376154 -1.5158759179174237 18.72811768549743
4.0648589849049435 -2.298223736834627 4.774167768993965
14.178414351587374 -1.0122364558951888 19.01725147080719
4.257501268649445 -2.2936550961331714 5.045503668647384
14.169347188099714 -0.48119751135896277 19.003556791550608
4.487391813311973 -2.297690823785359 5.369320264688653
14.154247621098907 0.04457286313550747 18.981373825041725
4.73622510052595 -2.2963317678671293 5.719808609852059
14.149453270411838 0.569585644373458 18.973708088961185
5.005417424538194 -2.2870129763322904 6.098959851192311
14.153691971818384 1.0994980553268203 18.97875710114999
5.257668084004596 -2.2459308408547787 6.454192902096714
5.556273174498384 -2.2094650501643547 6.874726164764585
4.034806260857043 0.4932654515680645 4.726984255063142
4.827730219723191 -1.6883785593862053 5.847640081568891
3.535310601998397 0.5124184858423224 4.023392699691886
6.269382499292375 -2.11225243079213 7.8789979294507635
3.2045940464526046 0.5320922374247739 3.5575320754634956
6.681670184415492 -2.0428795060775817 8.459599615719803
3.553429874366241 0.7202389146626579 4.048553087714772
7.172094568994987 -1.9664584627708628 9.150247757684832
3.2234458662073058 0.7157744679799065 3.58376615906624
2.9007882179032447 -1.884352146120007 3.149222885231099
7.734193811001165 -1.8769768204568065 9.997681108238336
2.98916852931551 -1.8705774358351408 3.274425285424948
8.406492996132032 -1.7637875600840183 10.950067490393996
3.562747460232459 -2.2966893877852974 4.087871590963246
8.65522669736337 -1.5127650516993236 11.302063209902181
3.7135485805171413 -2.2998449948289457 4.301547634973866
8.5085063155498 -1.177960447130648 11.09359334712366
3.880555363607087 -2.3031273480894807 4.538186219047624
13.999901063112551 -1.5250591621112322 18.874974671647013
4.053022315904227 -2.2982091764556167 4.782546698733399
14.125599721071056 -1.0120832402980653 19.052186061665207
4.247034574129709 -2.2951746585370922 5.0574379464313886
14.1211794537419 -0.4812626506461943 19.04500102047136
4.463147377729023 -2.2904324580498567 5.363640915516172
14.103832668122335 0.04463984579070485 19.019509780225736
4.722828437773669 -2.2969946398154697 5.731595277702016
14.097903855034538 0.5696490513034417 19.010196665878688
4.989877164200121 -2.2869938605520423 6.109960270804678
14.105580470645982 1.0998515544448 19.020153675446934
5.2356290822489 -2.242948664769351 6.458090763358306
14.05562395885917 1.6207063566475128 18.94846460698701
5.534128785859703 -2.2072515599163003 6.880973965173454
3.9438587504858535 0.4802167509349994 4.623046562400111
4.830740710669874 -1.6964092679391516 5.883453419085284
3.4831774963059683 0.5037048093471082 3.9702645148670372
6.244375855007552 -2.1103966181445037 7.887157500205859
3.1938586108383866 0.5315388909645816 3.5602792895554747
6.661785457621522 -2.043676923115266 8.478470925289855
3.2295401671098 0.629793136455302 3.6106661082393763
7.14688891893003 -1.9660620795186912 9.165681273059803
3.2205860713659646 0.71765396556549 3.597826362999507
2.893037974265031 -1.884342681080022 3.1546753079260736
7.704973961327107 -1.8766217800792895 10.015825127083833
2.9820478326990116 -1.8715440740476417 3.281568956716308
8.380126113663433 -1.76484900208498 10.978305500515527
3.5511983631179262 -2.2957407726050554 4.093835811626436
8.611857750723273 -1.5104383319632906 11.308282120213331
3.701352371158663 -2.2989366514224128 4.307940500014276
8.527473413809522 -1.1859407926804992 11.187398372951769
3.8686831883385766 -2.3031128485965797 4.546538741518037
14.018771147314814 -1.5336943524623794 19.017841942607472
4.038325840917287 -2.2965733274103917 4.788414648651748
14.171570922986596 -1.019902011869186 19.23482154641879
4.232560562602096 -2.294390753415127 5.06536294231876
14.169545584623267 -0.4850532158326277 19.23100563860428
4.4531034561767395 -2.2933115987800328 5.379825015980453
4.708492074639259 -2.297656726678644 5.743981862572248
4.97224924116778 -2.2863366409201755 6.120043961596837
5.2202484941163485 -2.244112020820519 6.473583599278929
3.966974482642681 0.3676894611776084 4.682054527605119
5.514195216340364 -2.2066807602848164 6.8926466635639105
3.832243651882491 0.4637601682744077 4.4897801604152505
5.8414843094074795 -2.1612168707295933 7.3592373147983
3.459288119542042 0.5008872146582681 3.957932222537251
6.225910637489562 -2.1117428850101616 7.907290462150475
3.190559038140724 0.5329591903063241 3.5747057997313285
6.635964011485262 -2.0428234915620043 8.491851033520744
3.2124726232500613 0.6275100334141296 3.6057873576273556
7.1178880950808745 -1.964930374838384 9.178874095591409
3.5771071452072833 0.8387763684994298 4.1253396427870355
2.8827745505405837 -1.8812824381678246 3.1555484000021043
7.675095568223302 -1.875627579423612 10.029491055634713
2.974381555941941 -1.8715347776226192 3.286929739961963
8.352075485728346 -1.765088436033836 11.000338222096566
3.54126374600201 -2.295728725361392 4.10078284256405
8.571525411472448 -1.5083429930529384 11.314665223073808
3.692864138690914 -2.3007130345545055 4.318242250790987
8.550091637652578 -1.1942874344369638 11.283376538622813
3.853346989853226 -2.299689422628586 4.548431861884362
8.407908984669586 -0.8712473968367095 11.07887447629187
4.030629850380031 -2.2997995945819105 4.802720833267665
14.24041587770248 -1.029336892052366 19.445110320861943
4.222021354955756 -2.2959106855005436 5.077239879973207
14.228204131206668 -0.4891471136687424 19.426657848918374
4.435311323640627 -2.290398578849837 5.383166963268179
4.688569318695621 -2.2942354860411127 5.746438677590788
4.955566657733947 -2.2856809487810716 6.129396257334226
5.203660796694495 -2.2440919066784 6.485182481113248
3.9793413667372155 0.3707079529355995 4.724525576089308
5.494236894959706 -2.2055636306823003 6.9019090478349066
3.8132147353271177 0.46244828524139897 4.486079919979159
5.840126076209088 -2.1692424200127314 7.397978572852957
3.2770425760909507 0.46505104416610576 3.717007066843372
6.204200859747994 -2.111260277856073 7.920094808128431
3.189987932735944 0.5349426135680553 3.5920175828278897
6.5868798917686835 -2.0329004948807783 8.468861622754734
3.2095288298552305 0.6291592731289724 3.6198831787781542
7.090363297269088 -1.9638006879159298 9.190922456917498
3.3816140190720425 0.7771105984867434 3.8664602889483173
2.8793821407123477 -1.8853421157108186 3.1662951681831344
7.646321213352574 -1.8749540660059658 10.044683510359128
2.9686884074512383 -1.873478625771648 3.2951381282120007
8.32170725473611 -1.7647784087288074 11.019033889931897
3.53634175844605 -2.3003956734934534 4.114967055089303
8.566299014848036 -1.5133393395964614 11.371529910976916
3.6812858734957308 -2.2998058640699695 4.324111737479472
8.575639458243973 -1.203180518773678 11.384470165704363
3.8452330715665157 -2.302233300354921 4.560681860553787
8.451178388587076 -0.879912783600979 11.204321201930902
4.013511336051482 -2.2957343773391115 4.803485960298101
14.279746616704658 -1.0365309670280438 19.614865206229315
4.20933968019807 -2.295895414862529 5.086054706402925
14.266518766027739 -0.49251177034236654 19.59483663390973
4.419652010700184 -2.2889338629614797 5.389510740379564
4.674017317901722 -2.294217962687101 5.756553814825708
4.892450288506774 -2.2576406407563434 6.071676168428644
4.095631404396289 0.26263247687591823 4.917550385847026
5.178342309848816 -2.239332941496965 6.484169235806106
3.9267194298203894 0.3655714100593818 4.673642300303381
5.473168724079908 -2.2038986069337683 6.909524784167529
3.799901236484592 0.46208287225760997 4.490484285669943
4.925979489825693 -1.7607438615875157 6.119196241292726
3.2251515867921556 0.4560996032110105 3.661165463148695
6.173595136110044 -2.1071167897552483 7.920030570756819
3.178057240241662 0.5341073004067243 3.593076117176174
4.8563201432711685 -1.4007703407525516 6.018058705213499
3.2323784953833403 0.6383470044445159 3.6712778339687677
7.070660515579674 -1.9652387098391246 9.21419577650705
3.218934640964818 0.7259096363037786 3.6517277298140605
2.8700860375524524 -1.8832991019580771 3.168532090683882
7.619748793684995 -1.874922289916481 10.063044588594032
2.9728568638090263 -1.8851881698758641 3.3177157408075995
8.29016329466892 -1.7641938670787385 11.03601490026936
3.522340146956762 -2.296640549355369 4.116047754237636
8.584476545893057 -1.5231394434171963 11.462817441358048
3.671721743625798 -2.300687664135076 4.332894513505299
8.601805797460539 -1.2122554082969446 11.48743486906822
3.832968109746557 -2.301367408184504 4.566957952633169
8.481348572150251 -0.8870822916378803 11.31201895442613
4.003666145567528 -2.297340321359416 4.814733092220431
14.33182278736612 -1.0447995522573963 19.80473707629403
4.197678511869638 -2.2966477255125093 5.096356872355561
14.30285406879248 -0.4958330567986416 19.761736478481843
4.407152688082394 -2.2896419735048035 5.400413727366247
4.663699800453809 -2.2969231740728957 5.772825750661934
4.801732598161793 -2.213042829637029 5.973046798914827
4.112847680675811 0.26516230494497556 4.968786929061206
4.793422431048744 -2.037919107969334 5.9606809111974375
3.938917622761881 0.36858990919710893 4.716134113592867
4.852157003090302 -1.9009234629328422 6.045701981418526
3.7831940334953504 0.461149422552692 4.489928399136859
4.902695789285716 -1.757203901726038 6.118814544201846
3.2197918483148253 0.4568176038426184 3.6721111528494434
4.872144798170818 -1.576230927386054 6.074154330205126
3.1762479075287775 0.5358088259541833 3.6087669691732525
4.879848315530633 -1.415183268911637 6.085057892589735
3.2101740386230757 0.6344242355874293 3.657842895825931
7.044179241644635 -1.9644760940062396 9.227712456307303
3.2135638073815587 0.7270415072986864 3.6626033874940656
2.8627892237999424 -1.8843063984901975 3.1756310038664517
7.586454741947406 -1.873924715906986 10.078720114061314
2.9897258805342757 -1.9105681398031775 3.3611800566928296
8.253796163932858 -1.7633302676790479 11.053773606256385
3.5100970553526416 -2.2956914737556704 4.12230938762042
8.599482524230112 -1.5331632675839622 11.558557986676629
3.662822664793258 -2.303357077463957 4.345514111818134
8.619103292792754 -1.2205966146259921 11.586691259039009
3.827451751760595 -2.3073194972096402 4.586107852482611
9.140400761200874 -0.9706453280568307 12.348077138791702
3.990223374936156 -2.2973243653510353 4.823963027796497
14.33102856554612 -1.0494759159334424 19.93373392481894
4.18126519993022 -2.2950954781661235 5.103145374785918
14.325951495097629 -0.49893155021997476 19.92536287788992
4.395024653130998 -2.291796303344837 5.415525012321995
4.65042875815198 -2.2989456100790124 5.788781921839539
4.765383956215827 -2.201559680488975 5.956607820735858
4.065058165900892 0.2622765479379298 4.9289035444587626
4.750495074843397 -2.023682986334518 5.934541981593608
3.931401316530666 0.3693209610592408 4.7333941433924505
4.724087926649542 -1.845024084635417 5.895642259246597
3.799992648233265 0.46608724372299126 4.541187850245625
4.7551131416308 -1.6973216963887854 5.940726989639194
3.250308006682581 0.4653202059846467 3.737886759542969
3.167697918396417 0.5361021410595728 3.6170389785264923
4.863509894936798 -1.4155749823244403 6.098649752077028
3.198121721955192 0.6337803303019033 3.6613313500407543
7.013526681541325 -1.9633433107578864 9.241604630888009
3.1659901120037395 0.7143432086292152 3.6142353389192583
2.8578174300066603 -1.8863324719294616 3.1831929791054727
7.561459635477259 -1.8738952637045247 10.095775549100756
3.029424828949888 -1.957433864661383 3.435514731672285
8.225131897376297 -1.763023000447457 11.07093576539586
3.504685527196173 -2.299423547867725 4.134561603436247
8.628721329411277 -1.5450237120207633 11.663685786292598
3.6518461695427495 -2.302450889988714 4.350837952375618
8.642807470757365 -1.229126501624694 11.683841965986703
3.8107476348165683 -2.3021923598417504 4.584363706906538
9.124046024099956 -0.9723760028533686 12.390640001407501
3.9831107679264477 -2.3005519656291997 4.837670384173632
14.365623718606487 -1.056224439374547 20.093953728710645
4.170347883089067 -2.29584912444597 5.112831176484072
14.360635339565823 -0.5021272029342448 20.085666392708962
4.37700890719296 -2.28816040987766 5.416532758337489
4.632446389134383 -2.296206800388732 5.791944666428058
4.746927215950594 -2.198995459746725 5.96002114863035
3.967005735260245 0.2548404356471221 4.809591375225814
4.727765833146932 -2.0189277395256418 5.931550499356627
3.9001975657487034 0.3667582710689441 4.711215186572649
4.700318057225338 -1.8400770931342505 5.89090355636789
3.8410245883486427 0.474809933695145 4.624066328265123
4.733339653569047 -1.6937837885829696 5.939180454199919
3.3536606768191897 0.4889163796043842 3.9077985002119955
6.122335332394299 -2.1120753615005894 7.981209239225745
3.171876075335775 0.5392125480182929 3.6405558785929846
4.803815269689352 -1.3986528378891985 6.042243896612536
3.201029806675609 0.6370677994914076 3.683232142430527
6.988514524560919 -1.9625829631951524 9.253912828710966
