ply
format ascii 1.0
element vertex 835
property float x
property float y
property float z
end_header
171.3097988235388 3.206822659995043 -30.624267778189196
165.9963994820012 -2.001409245983444 -50.98047522467234
174.17280150446106 5.376098464545118 -19.57303696664364
166.14245869641704 -1.9265626213306335 -50.412031162385446
172.11061030164007 5.067022993890145 -27.69595630412128
166.30510132227778 -1.8367851170479657 -49.77988099665728
174.2099265517998 7.308620789866396 -19.67712862184346
166.55826201166727 -1.7850051317584026 -48.784485453322574
174.23125017200908 8.281542375217944 -19.719110450030698
166.56353473536566 -1.5287853387906127 -48.79689866227805
174.25511803312003 9.271266556876508 -19.753206145055266
164.91447458075902 -2.1256607107314127 -55.201668187983515
166.5476554102386 -1.2760933146761009 -48.77119519244212
164.9667207456995 -2.11439985824032 -54.993869845195476
166.52377919784692 -1.0107726682576157 -48.901572909683225
165.02482427656898 -2.1064451751254913 -54.76217714155985
166.56694280811482 -0.7755324782721835 -48.75948712150506
165.09031422862793 -2.1018714330528105 -54.500455709023036
166.57645237114033 -0.5243219571462765 -48.75429187149278
165.16393424182337 -2.098459345390326 -54.206015998849864
166.58445811956162 -0.27511222863295137 -48.75485949553404
165.24095470207763 -2.0874228786787548 -53.89895445296996
173.45734356217167 -0.33438925534264474 -21.217666003678218
165.32580593061252 -2.0740846904560444 -53.56082928797318
173.96270250064902 0.6043529648516348 -19.316372652803786
165.42049872302852 -2.0578215601927656 -53.18366547964767
173.99228576025152 1.5578778964655682 -19.322745337004108
165.5355685668972 -2.0527484338008843 -52.72341642219672
172.03495954665163 2.03274318822684 -27.225023443203686
165.66001031981847 -2.0370399558643113 -52.22702082429838
171.62051294677983 2.6587205542068575 -28.96706574669855
165.79447593065194 -2.0073442785650535 -51.692304981460865
171.24835642617754 3.217445850288417 -30.530912835529033
165.97473300918844 -2.001633582137175 -50.9710310995324
171.80122340110574 4.191535792512849 -28.443952630941673
166.1187459003692 -1.9262075769368783 -50.404063656050056
172.01197265105438 5.063555735321351 -27.713987322156104
166.2810069995792 -1.8374997803069963 -49.765741295794356
174.13938244209345 7.34120435690271 -19.490881975077393
166.51273677836167 -1.771626585543774 -48.84617023207598
174.14798828846722 8.307657004783907 -19.582967829649483
174.17421076803112 9.30218810291135 -19.60817333008481
164.90234264821316 -2.1252649431772683 -55.19865962183822
166.51242291363062 -1.2735161665667158 -48.774720890221005
164.95512606383068 -2.1167313092600653 -54.98550032819445
166.51613086604385 -1.0204961559622974 -48.79310299510998
165.01131005590057 -2.1060043180181895 -54.75882586585784
166.53204796038122 -0.7736667277485616 -48.76110184513105
165.0755683032524 -2.1005708899508613 -54.49867225262292
166.533437853265 -0.520745272071067 -48.788884284053246
165.14659722214526 -2.0940116257685846 -54.2111804843824
166.54184576981316 -0.2726222402721469 -48.78754006843005
165.2243073285703 -2.086146417807021 -53.896737553115805
166.54886877640584 -0.024674752795877428 -48.79179443243009
165.30766374555682 -2.072112988403677 -53.56018762097254
166.56988737714929 0.2256321587466486 -48.73954200557464
165.40374784925234 -2.0598585484432834 -53.17173131463143
166.5664794426689 0.47316374031258257 -48.786088373796105
165.51521069178528 -2.051482850344414 -52.7203282803482
166.57030729090542 0.7207577156908809 -48.803267873108304
165.63896917803248 -2.0369107380840332 -52.21982830056466
166.5756577236126 0.970672094196054 -48.81457467603114
165.77264720580766 -2.0081686473056113 -51.68092871294901
166.5820032489137 1.2196743612447236 -48.821718403677494
165.95155086911367 -2.0032129890260735 -50.95528296118029
171.74090289873055 4.214222453380129 -28.27368834233904
166.10104743325687 -1.9344890203773055 -50.357448020871864
166.59726251536102 1.7243067314489806 -48.826456475701164
166.25177158371994 -1.8365460384976622 -49.75849069388083
175.37230631932292 8.32934888538814 -14.074966770114834
166.4792242850161 -1.76954259978146 -48.8439482349726
175.1829270586328 9.263390606571601 -14.967224892779171
164.89077979093324 -2.1229998114396142 -55.19944385185778
164.9445239176033 -2.1181930324314355 -54.97924425481611
164.9996879673304 -2.10648821265659 -54.75412873616553
166.49520582732714 -0.7699950602784171 -48.78697210913748
165.06363037232924 -2.101821917550605 -54.49200523696444
166.51535199113417 -0.5224314072349328 -48.73717375786455
165.13468828979018 -2.096730428393329 -54.20069890491908
166.52988840694235 -0.2741216054881182 -48.71052825740165
165.21112672802124 -2.087918552976168 -53.887780385315764
166.53506492726117 -0.024418252289510778 -48.72252847860763
165.2931371470973 -2.0730210219114165 -53.552776241476096
166.5488488061609 0.22700926942770996 -48.699389152339215
165.3877197809862 -2.0599836887817324 -53.165863617725336
166.5313165096514 0.47317219965151114 -48.8042301973223
165.4983582463743 -2.05213863048819 -52.712284114307806
166.54323854023926 0.7221715673792333 -48.788418003455085
165.6211632177171 -2.0380042270644676 -52.20954924952113
166.5571675504331 0.9752384421555906 -48.76490220262747
165.7546679276649 -2.010658023712553 -51.66460838781482
166.55445373314151 1.221248713098971 -48.80883125575765
165.93157109039538 -2.005367229862291 -50.93840094847895
166.56037228125112 1.4711252917658355 -48.81780497261361
166.07717441279783 -1.9341352373388718 -50.349593846611604
166.5720509783436 1.7276764981519077 -48.804000783639815
166.22667122237493 -1.8364824216273847 -49.74830721313313
166.5756603610634 1.9789837974972109 -48.82265355554095
166.46522869148654 -1.7796584813005316 -48.77562155288169
166.7959757668622 -1.7362802004400781 -47.42232817856471
164.88189585622436 -2.127436228864153 -55.188262729398126
167.26967409109983 -1.7234885805194697 -45.31029268038566
164.93311886254284 -2.11782393916105 -54.97648582545777
164.98804715503155 -2.106973035162123 -54.749463262697496
166.4705122387468 -0.7705064379693138 -48.76254075771144
165.05086379840768 -2.1014087523610403 -54.488917272002624
165.12191904303043 -2.097870246985075 -54.19382969768292
165.19667260931305 -2.0874507793293815 -53.88428437164615
165.27857849974941 -2.073930189450639 -53.54540270141331
166.48733491600296 0.22618901017360055 -48.82647846708281
165.37082668148966 -2.0587910634368916 -53.16371987888266
166.5155178079715 0.47612411656283055 -48.74283104461173
165.4810456788926 -2.052180396743116 -52.70613873496177
166.5255098077844 0.7259502728654446 -48.73483404085121
165.60331181626407 -2.039098661432204 -52.199316204136366
166.5407716519916 0.9806343959938859 -48.70556812907971
165.73226157677183 -2.007883729860415 -51.66712867942581
166.54051867848273 1.2289447133314182 -48.73998329018078
165.90975544338963 -2.0055956140944633 -50.92913013427303
166.53606472593862 1.4746369100097318 -48.79152001061732
166.0515004508864 -1.9320387282418452 -50.349407145213135
166.54295959621967 1.7286179773857144 -48.79696434374654
166.20108319321216 -1.836030385662448 -49.74009958151471
166.53528844007187 1.9715412325514357 -48.861513293644705
166.44232256130024 -1.783212144839603 -48.74373265021283
166.77839145432162 -1.7450990982716872 -47.35093645203715
164.8689693079175 -2.12512992563622 -55.18878698210295
167.25028333515309 -1.7354856273538244 -45.19755911517775
164.9183669029986 -2.11283194191767 -54.982102380907925
167.99124875712783 -1.7318677211670679 -42.07275051638577
164.97255084175887 -2.102165645839687 -54.75500869066527
168.89096111789598 -1.633926801484039 -38.29116355589902
165.0372786221975 -2.102609995788195 -54.48193499872015
170.19929772369096 -1.4520917783543192 -32.79742901523887
165.10861785025193 -2.1013242466205817 -54.181208813865496
165.18120935616824 -2.088419520716062 -53.87677782845489
165.26082855428274 -2.0726677721197615 -53.54308989447006
166.4742841907577 0.22831807601522072 -48.73700877639325
165.35436453453386 -2.061490538216863 -53.150083752872966
166.4623768776176 0.474004385486913 -48.82055745160724
165.46190908232174 -2.052767388035168 -52.69765755015205
166.46762964690868 0.7206078875121651 -48.83185384405278
165.5817418179299 -2.0384034445543877 -52.19416620455411
166.4776170736958 0.9709611013888895 -48.8236875196376
165.70987487983712 -2.0081867854343045 -51.65781695001801
166.4825307066036 1.2185912215324224 -48.83655112647775
165.8872252210462 -2.008140521370991 -50.90978146413575
166.4916940811625 1.469256280917038 -48.831903722827526
166.02104966739157 -1.9281030990097572 -50.35618298925852
166.49903994360307 1.7223842407208467 -48.83525659253623
166.17264676014742 -1.835866186699281 -49.72927772790798
166.50735478643924 1.9760864707281491 -48.83459776254629
166.40676231564956 -1.7797528029437668 -48.74942006790276
166.5147611771096 2.2311774540061946 -48.837962002869816
166.74290208074228 -1.7448089985343735 -47.33636351552404
166.51471319151418 2.483328909990595 -48.87236865431974
164.85889348014317 -2.126696290563412 -55.182804832303184
167.21287647437634 -1.7349995850903606 -45.18262981226758
164.90810295926167 -2.1152128021949688 -54.974204370532135
167.94781487441008 -1.7322019870427137 -42.04412077029443
164.96128641163358 -2.1035275907054607 -54.7486587195333
168.83338766499932 -1.6322246076004592 -38.27555269546005
165.02409585790232 -2.101367137920729 -54.480697056575366
170.12592608313886 -1.4497367213119228 -32.7801413485882
165.09538023721925 -2.101676228531421 -54.176201959237076
172.18794228803617 -1.122620315896918 -24.018110157814213
165.16592527483277 -2.0864617109747443 -53.876989000243974
173.11314000609056 -0.3260733294489979 -20.175614544152715
165.24581787726368 -2.07287636146439 -53.53762971201513
174.56846756100975 0.6909505353070053 -14.099116773044287
165.3362085492371 -2.0583234654034825 -53.153565428648875
171.46246549601423 1.2695713603161152 -27.443891893442817
165.44537690380722 -2.0540425632702215 -52.68789760456576
170.7899634487444 1.8473510737429486 -30.39517150129862
165.56297754071738 -2.038358587184295 -52.18777622461123
171.19296747831226 2.6792244533366953 -28.787778786342532
165.69088626156224 -2.009626922798159 -51.64541409391913
171.04113835498265 3.329882505844069 -29.52525272566683
165.86616588036802 -2.009334305042723 -50.89684202422134
166.46823405602876 1.473277678275652 -48.801924859581504
165.99888324921187 -1.9295019958639543 -50.3409341135861
166.481536706462 1.7309125407650179 -48.78035866998912
166.1469972891985 -1.8354193512244084 -49.721219200965905
166.48199930514917 1.9798157039517132 -48.8124396266052
166.3796912673536 -1.78020603725147 -48.73494518392295
166.7149890621125 -1.7470438436680902 -47.30743981177449
164.84769180992237 -2.125393447671436 -55.18200149850456
167.1754114400503 -1.7345165680789412 -45.167802223369975
164.89705720223188 -2.115762823286268 -54.96980935710755
167.89983296293545 -1.730475719590123 -42.03500065010191
164.94847983333372 -2.1013945284427433 -54.749372645097125
168.78331756960407 -1.6332483678110474 -38.22705865386432
165.0109144721619 -2.100126166145102 -54.47949725990278
170.04670309522368 -1.445915608097905 -32.78836208188912
165.08095388744417 -2.099661620548368 -54.176619171624324
172.09272697075576 -1.119891960801344 -23.983639121640934
165.15223286157857 -2.0874912589378076 -53.86999328056065
173.03725907588438 -0.3241024377738404 -20.00806716762512
165.2319880728685 -2.0751950186450348 -53.52672307601251
174.42056104380376 0.693692102684917 -14.165312146766944
165.32213593914318 -2.0617502107452443 -53.13865988278622
171.36659637948836 1.2712449009816065 -27.454417114839544
165.4259324524193 -2.0510129250457863 -52.691188595295756
170.70315278003213 1.8482595775008723 -30.403669778265826
165.5454336315282 -2.040027785534575 -52.175822897399655
170.74882424586576 2.5510323704878988 -30.303125840394777
165.6735174844031 -2.013171240388244 -51.62552449154005
170.99896638033027 3.3515911631695916 -29.33167160158017
165.84462670924898 -2.0100477753028634 -50.88585186068058
170.97564228601038 4.046825341499714 -29.52851548318019
165.97622134438802 -1.9304658486901423 -50.327646379999095
171.15758984262942 4.879825222529171 -28.856506275646286
166.1213193994217 -1.8349745828724 -49.713229895053324
174.61132448785673 8.265306977223275 -14.385246085320901
166.3538585160056 -1.7816941170897904 -48.71477617301839
174.61981064543986 9.349607534944036 -14.498195251527122
166.6808269352681 -1.7450974580813934 -47.3055818898947
174.64498305091345 10.463328883053894 -14.543038876202246
164.83617597157684 -2.1250267345771556 -55.17935700674062
167.13025458490443 -1.7309338539492645 -45.1757537477577
164.88417566890138 -2.1135459493553803 -54.970499703196985
167.85147059804365 -1.729896499635616 -42.013688267586545
164.93679920661356 -2.1036077718450352 -54.74115363574705
168.72278807014294 -1.631758276355469 -38.20702419745581
164.99769208657005 -2.100524699500852 -54.47459524220825
169.96342310097998 -1.4420739335928385 -32.793821700086774
165.06722356380126 -2.1007778417611185 -54.169694577288006
171.99301328569004 -1.1172441906651616 -23.94023329077651
165.1379925184991 -2.089238944038283 -53.86101207463222
172.94965410351298 -0.3217155843766597 -19.856626490493554
165.21476830679282 -2.0732661638059415 -53.52661109161555
174.26570312902294 0.6966793960231756 -14.228241182123647
165.30215422511722 -2.057236911658327 -53.14569520153202
171.28361424521546 1.27606050527238 -27.38409456726646
165.40702246067386 -2.0504107519780854 -52.686846142021594
170.61633318246965 1.8506243816192223 -30.389878235084776
165.52172252319144 -2.0348120508626857 -52.18611066502383
170.72122615720482 2.575305785316844 -30.030937405334168
165.65309633155053 -2.0145709758424024 -51.61291572322205
170.9630601543187 3.3794222143559263 -29.08264544533902
165.82202792500019 -2.0111980592158885 -50.87269482188554
170.8989627896863 4.056345711708341 -29.457998515675644
165.9515517264245 -1.9309469726117274 -50.31597236678829
171.19682932208087 4.970632612200791 -28.279378608644453
166.09567556667926 -1.8360398296683134 -49.697278734602136
174.45916515427425 8.25521556260961 -14.433137497395997
166.33167920838113 -1.7875999267629779 -48.66925466894532
174.47190277921953 9.341201875830759 -14.528594775721352
166.64418847864334 -1.7427918156444928 -47.305285302685846
174.5154227365429 10.471553997593062 -14.495276509341934
164.82604426871688 -2.1265952156199415 -55.17345955527956
167.09059278234866 -1.7291989362448483 -45.170834725901116
164.87238288997182 -2.1122682034028717 -54.96965075323722
167.80513387727063 -1.7290033995978067 -41.99706856033845
164.92435957362304 -2.102351677032552 -54.74017870041658
168.6675568541852 -1.631028110342881 -38.18019832251723
164.98600033941392 -2.102612996892928 -54.466351267154536
169.88872868969048 -1.4394072131827518 -32.78303683811869
165.0539377785281 -2.1011332794737423 -54.16480000821684
171.9009993075764 -1.1150648706268418 -23.89068593261849
165.12269403833093 -2.0872862038000233 -53.861350353839086
172.8755656134465 -0.3198802945917542 -19.67373487679709
165.20047488255463 -2.0748837592677285 -53.51761245175985
174.11605244354993 0.6992012663516642 -14.307109194090451
165.2864159446274 -2.058030122166027 -53.13825671626649
171.2208388301058 1.2831767369864435 -27.248956873801625
165.3884141502758 -2.0486161479983704 -52.68653182792723
170.53717268974685 1.8535347504143371 -30.365798041362762
165.50412944416968 -2.0364846205994476 -52.17426252118828
170.64452467629584 2.579717407360851 -29.991074422843774
165.63147013065978 -2.0128600487405675 -51.611971386812165
170.93237139099418 3.407754482173643 -28.82895589276082
165.80121173433028 -2.012875465537198 -50.85802452367087
170.8222667219761 4.0628609782781915 -29.410115441309117
165.92794410887416 -1.9310428032941098 -50.306620784643655
171.2785504575675 5.089063523863088 -27.527708422366587
166.07033718395436 -1.835988697083378 -49.68751393068057
174.31035843100116 8.240994436185824 -14.504403151624757
166.30093938990368 -1.7853024381000615 -48.67037014138048
174.32105051680907 9.322627144499691 -14.608988324348935
166.61132670637852 -1.7417495408271735 -47.29783762994161
174.3674793935973 10.453471286858273 -14.561756914861078
164.81450344777062 -2.1262306677135405 -55.17087917460406
167.05061482099015 -1.7286514126568606 -45.15579610641671
164.86166779682523 -2.11554390392308 -54.95996623638199
167.75617914625462 -1.7282261398167444 -41.97797019747647
164.91116746367945 -2.1010729298141464 -54.739073125239855
168.60728374593413 -1.629708233156032 -38.158549813541384
164.9723600471393 -2.102182135572556 -54.46330156675233
169.80642588779787 -1.4358147208890804 -32.78509774677494
165.03977791416406 -2.101462609329189 -54.15975107828551
171.80909356732315 -1.1136944095687915 -23.81074044897091
165.10763804532934 -2.087544454893859 -53.85608307181089
172.79058357629611 -0.31767013870028177 -19.503088413749794
165.18324917414387 -2.0729589101082078 -53.517598066657946
173.95911801664508 0.7019370840761687 -14.384729164829821
165.2703906851398 -2.060109063720084 -53.126933800842956
171.13609572256314 1.2878503047229006 -27.182903715458785
165.372248755266 -2.0523207875030165 -52.66926743101371
170.42584252177227 1.849193167172585 -30.461606500722688
165.48527899737 -2.0381199330702384 -52.16219128274919
170.63682732285312 2.612512130866933 -29.619697066011778
165.60935638506166 -2.012161530398037 -51.60702712580432
170.48247562549489 3.2361514104422664 -30.403443269082853
165.7788943213939 -2.0145084249285965 -50.84308871372127
170.76988902688785 4.087103006724334 -29.22973217711311
165.90276991581277 -1.9310919901473367 -50.29699158283719
170.88527405020412 4.884003222561049 -28.823171065066596
166.0429091548581 -1.8354987229561863 -49.67937104879459
174.1507033140001 8.224185578663334 -14.589770372310937
166.2696591623746 -1.783983649324544 -48.66539472450914
174.16378473400832 9.305057616288218 -14.684307018066356
166.57429014684107 -1.7391555212465544 -47.299690503851
174.20866548526297 10.432071613957747 -14.642176606014452
164.8026088574081 -2.12491140786863 -55.170055607625685
167.0105782596534 -1.7281076100301271 -45.14087583614943
164.85019946094727 -2.1169906008432213 -54.95379622466094
167.70337507253979 -1.725603513021613 -41.976516021469784
164.89941238715195 -2.1032887972889247 -54.73095485538728
168.5460848849939 -1.628075115263701 -38.14097495744032
164.95907589126435 -2.1025839972311564 -54.45851028856975
169.72673538723606 -1.4329107125757665 -32.77570753701602
165.02522974042336 -2.1010050182022475 -54.15654434499787
171.711261519305 -1.11146368600989 -23.756421210379273
165.09256239618313 -2.0878041165827295 -53.85085932060683
172.71279059841933 -0.3158245642894544 -19.295485253626794
165.1675525673748 -2.073846004808306 -53.510303000599976
171.06315012844408 0.5329432467662266 -26.95280408965982
165.2531597024586 -2.0602135628067275 -53.12120097028764
171.02740176147904 1.2884929478033789 -27.224438870701288
165.35249882023925 -2.050495152790928 -52.66881091111927
170.36551509138928 1.858812306994878 -30.329734875264666
165.46401541806264 -2.0363357209166373 -52.161429284730886
170.634314632195 2.648188645158578 -29.215036893199944
165.58921403534336 -2.0140911447476313 -51.592707144969424
170.40546457180992 3.2430933462957836 -30.345737591823006
165.75650718064045 -2.0161424000427517 -50.82821323695639
171.1025755289753 4.342460388343959 -27.318946493887903
165.87715397572023 -1.9307087237247311 -50.28934534934145
170.81848927168514 4.903614044779912 -28.69712228965023
166.01545336386542 -1.8350115991980689 -49.67130989211315
173.99381944423573 8.209093914231534 -14.66607768763113
166.2416604880796 -1.7854182628286581 -48.64509976783572
174.005777106676 9.286264735822892 -14.765909834733904
166.53811797144184 -1.737163160559139 -47.29779079710487
174.05430658513177 10.41461304886735 -14.70601835645784
164.79276429750695 -2.1274384846848298 -55.16252208975171
166.97414422282264 -1.7283974919059368 -45.12076953469545
164.8383755811813 -2.1157165284200867 -54.95304453000373
167.66060935172865 -1.726572144773381 -41.942783382585006
164.88695935074122 -2.1020367424477673 -54.730087851190575
168.4893031846525 -1.6268805267659354 -38.12046666008095
164.94657560993218 -2.1030124018997345 -54.45393068885633
169.65329587334412 -1.4306100401162514 -32.7597382838987
165.0122565498146 -2.102152429644693 -54.14996064342245
171.62311821330886 -1.1100264016563013 -23.68611341909333
165.0783753061208 -2.088093552713841 -53.84587450837133
172.6450331081515 -0.31437332076487645 -19.069944117176732
165.15166946316018 -2.0726579503171796 -53.508765122310535
170.9732307363819 0.5357602595537152 -26.93324972496997
165.23580567430088 -2.0583770143910995 -53.12129258447786
173.67306017522552 1.76464800802891 -14.611254713019655
165.33578988294568 -2.0517784046239154 -52.659333703436154
170.27636079154098 1.8589439604837377 -30.35120554797223
165.44512634451942 -2.0363016910308986 -52.15535983582001
170.40825771782914 2.5952405318795617 -29.847120666289804
165.5691314519629 -2.0144877523754396 -51.58438932786041
170.3664593560159 3.266457451033825 -30.137809268008816
165.73509016652173 -2.0173422040522784 -50.81560802306364
171.29423644898122 4.51572056691722 -26.02315213147837
165.85304014444597 -1.9303757949841296 -50.28210313640372
170.65488732469444 4.850488607168356 -29.031717925142168
165.990814891904 -1.8357460797853276 -49.65792154487022
173.85080923545803 8.198282780335107 -14.719610201915671
166.21659954322055 -1.7879417264806108 -48.619487024616404
173.86889845550584 9.279083023204247 -14.792314708481342
166.5085042275623 -1.7385148322669748 -47.27515962402803
173.90652160706634 10.39510959383041 -14.779670285093587
164.78120247835795 -2.123297086780787 -55.167226951960224
166.9384369270298 -1.727760359680903 -45.109047531499634
164.82727230772062 -2.1144661170539454 -54.952480787987746
167.61495982262687 -1.7247627160293706 -41.937056217223315
164.87561525610877 -2.101682720742618 -54.72765318392848
168.4328181628816 -1.6245333271643378 -38.116500344196936
164.93486395797535 -2.1034667298269607 -54.449556928735596
169.5889560195885 -1.429695988799832 -32.72346547780572
165.00047464281727 -2.1041157033171927 -54.14179303890663
171.54623247355607 -1.1096415066511438 -23.59192545263199
165.0654464163987 -2.089157767859942 -53.83930400544799
172.5706252694049 -0.3125309709853327 -18.904658030606093
165.13860616790902 -2.075012574516606 -53.498301548602356
170.8976645601657 0.5389631403538173 -26.87407997859838
165.22137157885757 -2.059865930937 -53.112400528113334
173.54462108015431 1.766229951544406 -14.640929718521022
165.32015970302058 -2.0530977563418937 -52.65013982027595
170.86138489811714 2.049936104194959 -27.26491405001795
165.41938374593744 -2.0243413828262065 -52.189048376779795
170.29471519109498 2.5831517998583804 -30.000097099900948
165.54954955935074 -2.01387666152028 -51.580186962479644
170.2855642793894 3.2664970877783315 -30.142822857601033
165.71466971087702 -2.0181080106296574 -50.80526901313193
170.47397135192935 4.06808489432884 -29.376409658326438
165.83280202662132 -1.9327013865092926 -50.26378411793865
170.71375115082566 4.953040238288488 -28.38127078519622
165.9673672806877 -1.8361440911003215 -49.64687033955468
173.7134593641893 8.185096016107254 -14.786794794250007
166.18643257647486 -1.7846838501180464 -48.6271197366743
173.72659207652381 9.25894828364608 -14.882067465229873
166.47600617670722 -1.7363608351944448 -47.27627525317742
173.7708206086506 10.379311730183618 -14.838321082383153
164.76896178098016 -2.1229166496442513 -55.16463678526165
166.89536816761182 -1.726899091997399 -45.09587767691855
164.8140179716655 -2.1131504531825978 -54.951494034138925
167.56274277071688 -1.7239096649121382 -41.917871492652935
164.86302312237052 -2.1038776139072746 -54.71947108776769
168.3673882525492 -1.6226459075900754 -38.100617763870886
164.919669301367 -2.1013545159896307 -54.45006000115516
169.50575734513342 -1.4270106291928784 -32.70789799103909
164.98359498678693 -2.100483215200636 -54.14573593185651
170.93313364221896 -1.025475069079711 -25.96916253451799
165.04975071533158 -2.0901382122606735 -53.83218916953787
170.87213195305432 -0.23436670125293452 -26.376531396501164
165.1214835342075 -2.0751709493941584 -53.49276398714451
170.79377640264778 0.5419509734623865 -26.864361880287554
165.2034085189093 -2.0606004720083506 -53.10473841764104
173.38357884726577 1.7668187933282284 -14.711039585563697
165.30000763345274 -2.0524714210457864 -52.64587522762785
170.70430140922264 2.0366008904476214 -27.511238851936746
165.40343527755132 -2.032214033682511 -52.15628093142209
170.22314966860188 2.5941778504878874 -29.88512973436441
165.52641437187287 -2.0136702589208926 -51.573318825031066
170.18906626888997 3.2667865692552835 -30.146792384673912
165.69026018648304 -2.0192207551389716 -50.79216523805091
170.39945402869077 4.083181080188828 -29.26537007075047
165.80591896690373 -1.932710658576897 -50.254104633865275
170.4375165556643 4.824479608923891 -29.193574250035336
165.93814917950232 -1.8356126318087844 -49.63868248561431
173.55191109104433 8.171554055742385 -14.855249905112203
166.152825812837 -1.7829775122610245 -48.62403559850972
173.566467643902 9.244266947524265 -14.944359631065822
166.4409296870229 -1.7366959232107158 -47.258745954237384
173.60878312573024 10.360675769673229 -14.907703774638556
164.75805064265097 -2.1244693534425725 -55.158773688591154
166.85508771436832 -1.7263687273255337 -45.081401644038664
164.80281839048428 -2.115515427495057 -54.94370929043647
167.51384207410865 -1.723359053705794 -41.89752046247514
164.8494573698021 -2.10173348805296 -54.72032000145227
168.30597196197007 -1.6210378729455408 -38.08374244017324
164.90701383992263 -2.103422852883133 -54.44184781390782
169.42632867601964 -1.4242540722128028 -32.697463199508235
164.96935453622896 -2.1008193785196987 -54.14089024778393
170.83326916068185 -1.0221721770239145 -25.956515366568134
165.03387665330317 -2.0889129175834333 -53.83077598513307
170.77498790312265 -0.23136053456563754 -26.35628308591751
165.10495518914936 -2.074659474985131 -53.48931895044019
173.19860809454428 0.7146450454891617 -14.782032320696537
165.18645426851685 -2.061369010929059 -53.097346527253464
173.23002703874621 1.7669840096247496 -14.787236291397598
165.28096588816132 -2.0518821699166834 -52.641906345517626
170.65389241300335 2.0523829239643456 -27.28252812450289
165.38256837675473 -2.031010428449397 -52.1538899742566
170.1344167061997 2.596205278550695 -29.874779785086204
165.50493896214346 -2.0140313203644173 -51.564900199051706
170.06542453227758 3.2500667157911933 -30.305876672129994
165.66268589564874 -2.0146247046078893 -50.802284239928184
170.3439047214369 4.107192907148318 -29.08767971186719
165.7782411060928 -1.9301639264414485 -50.256313416297445
170.39394806374352 4.8614603290119796 -28.95836701619037
165.9090081042897 -1.833580787717576 -49.638620106651025
173.3962309993893 8.155628432025834 -14.937438190632179
166.1191047088135 -1.7796172708278626 -48.631095989167875
173.41339086704215 9.228119703578772 -15.01457253488342
166.40822951037674 -1.7373945545251928 -47.239808613945684
173.4579420927163 10.34486066318733 -14.965919167955597
164.7484758823914 -2.126064910235469 -55.153218854018725
166.8188511426412 -1.7254903952527676 -45.07192933977976
164.79170480364292 -2.114269068061649 -54.94324088782232
167.46614403205564 -1.7205409622027081 -41.901934521846634
164.8377524983707 -2.1005106275301437 -54.71975148145663
168.25181782460916 -1.619661487546441 -38.06854403028494
164.8938967669414 -2.100558474508887 -54.44472349642452
169.3600481968039 -1.4229083716740498 -32.669571435599664
164.9557789099469 -2.0988467302588365 -54.141853602785055
170.7505161828014 -1.0201533996106935 -25.919107103334262
165.02087586190288 -2.089980182477943 -53.82431493487688
172.73644746414442 -0.3263017850867653 -16.29565758043168
165.09142303218042 -2.0763143388305925 -53.48080243921771
173.06842457377277 0.7172550190107285 -14.826740210364548
165.17047534492886 -2.0602299946608356 -53.09599065842875
173.09367202518848 1.766862100881831 -14.861236640570858
165.26560342189788 -2.0538184448240835 -52.63097704160663
170.63434525045602 2.07411097076768 -26.954456218094293
165.3663097178163 -2.0332994054290414 -52.140762684152705
170.0748870431193 2.605759456099163 -29.775055947247942
165.4849340266518 -2.01290199329482 -51.56275895078274
169.9920212334787 3.253683508633681 -30.278610017244265
165.63806284124757 -2.010122686978782 -50.81308221335798
170.2029345933802 4.069950272910173 -29.36846654276522
165.7574405352131 -1.9320585286108922 -50.24008049482363
170.42399921820927 4.946738694229279 -28.417717787513034
165.88583885629063 -1.8343738343410139 -49.62584705171816
173.258235571647 8.140596449433424 -15.015616726886982
166.09445801113594 -1.7811746985389185 -48.61194996545258
173.27227034431795 9.207494105546568 -15.107639809717178
166.3768638110992 -1.7361427004227183 -47.23538133239572
173.31620307071182 10.32101148657456 -15.060239554320518
164.73682843441992 -2.127598159453217 -55.147275232537794
166.77678602393883 -1.7253932891898005 -45.05328891764876
164.77843758980188 -2.1129577605436722 -54.94236925483484
167.4149111126749 -1.7203167657594178 -41.87735207342777
164.8241054043337 -2.1000917435892323 -54.71698789242724
168.18544990001746 -1.6174779006842348 -38.057138653865614
164.88005406917446 -2.1017738211628525 -54.438208264627775
169.27943364368895 -1.4210317654104916 -32.64102389150101
164.94167302917555 -2.101522404950647 -54.13149489633491
171.13914588755483 -1.0990341230095237 -23.43210511248705
165.00269866065088 -2.085751766804179 -53.83010224385427
172.58307125963356 -0.3212685052165141 -16.362539890927373
165.07457995627638 -2.077178961200234 -53.47356959923973
172.91260055336778 0.7203572970054122 -14.88088063256501
165.15172600175242 -2.059654516949279 -53.0921941906027
172.9349996600344 1.7674969580978166 -14.929024787477111
165.24467959359416 -2.0519710040569925 -52.630624033049244
172.95692821918908 2.8143180374777548 -14.97944834708099
165.34527979450297 -2.033769845916422 -52.132591710174346
170.09875746697412 2.6576107520126184 -29.184089638160977
165.46063600161742 -2.011130396433717 -51.56177698235416
169.8782585915592 3.2443118035428387 -30.37122348907447
165.61287733743018 -2.01028558398444 -50.80401858702902
173.0423552075215 5.984866558569042 -15.037546063937285
165.73156743081802 -1.933377565217872 -50.22488105209423
170.29897338469726 4.92831292958743 -28.53356205900933
165.85804061545068 -1.8354043006474583 -49.6102103960552
173.1018722170607 8.130115773069571 -15.068318430674793
166.06310775479415 -1.7815369021029004 -48.597559620432534
173.1093091254254 9.18834218005286 -15.192638621621704
166.34233992977087 -1.7370793300430265 -47.214264942684274
173.15814218886848 10.304928910275299 -15.119768971036976
164.72464126399464 -2.12344401380925 -55.152011178844596
166.7380176125779 -1.7244472203345482 -45.04353361160183
164.7682042848084 -2.116260799950767 -54.93307276406725
167.3695657300687 -1.7202794471902405 -41.854107333989504
164.81261479811093 -2.101464915574084 -54.7110263921962
168.12753552283152 -1.6160007303411237 -38.04152396760559
164.86878296279318 -2.1055297261969237 -54.42668424985627
169.20715769195218 -1.4192214328909283 -32.618463519269106
164.9268995909801 -2.098739492051906 -54.134171983652294
171.06007104075383 -1.099440868055986 -23.30831112300747
164.9894383106194 -2.0882832445589226 -53.81988747694072
172.44353846928928 -0.3166488756143118 -16.44076126328894
165.05862649961668 -2.076000639853027 -53.47229803636912
172.76834991140996 0.7226480408390372 -14.960191226254949
165.136091805336 -2.061116753525691 -53.08329870214592
172.79265090123707 1.7677009643960393 -14.998462741799564
165.22741764828749 -2.0526487165612717 -52.623299620480964
172.82159668430202 2.814471319214547 -15.013528869147791
165.33267978739804 -2.043988720224765 -52.09293396358807
170.2386221011216 2.7557823581739216 -28.051584407279776
165.4414806949622 -2.0131100372440986 -51.54811671310342
169.81404201209648 3.2557507742125305 -30.27325247665132
165.59126253709852 -2.011496702251876 -50.791789091275525
172.89655443239263 5.974106604968717 -15.1217119488483
165.70724198938717 -1.9330566959467863 -50.2180393486308
170.09196097269592 4.836697816220853 -29.11300958009102
165.8316220566069 -1.8345968579776786 -49.60494189477238
172.9602261817749 8.118075589729186 -15.130414439561989
166.034974701147 -1.7816704164915058 -48.585922239248326
172.97496175864984 9.181396153279184 -15.219809960765275
166.308848935089 -1.7357705364118368 -47.20960295489035
173.01681548332718 10.289227159233937 -15.17908676835755
164.7140290408887 -2.1240664298718888 -55.148135018818984
166.70145594372653 -1.7250066195896019 -45.02219394406522
164.7572996157287 -2.1177367224867827 -54.927303842339164
167.32037202110027 -1.7182038376635813 -41.850520714799174
164.8010992789785 -2.10283904791795 -54.70509491200833
168.07070304023745 -1.6150029100332302 -38.020193918899864
164.8548643419655 -2.102645792612786 -54.42951106257286
169.13404392327146 -1.4171954578422161 -32.600026036844596
164.91478105049367 -2.102256596764508 -54.12242295369409
170.96209168115274 -1.0967249222193105 -23.27886313389847
164.97579771527623 -2.0900704623473545 -53.811531699329294
172.3136951182949 -0.31250349380703263 -16.47230862242506
165.04335193487833 -2.0762264341758514 -53.46738702186996
172.6265418343203 0.7250489787421595 -15.03014627827649
165.1187073921656 -2.059293994901228 -53.083731486386036
172.65115638943743 1.7679504275192128 -15.066382719584801
165.20943354050644 -2.052101256498873 -52.61976497342281
172.67380459808 2.8106092559683793 -15.112657128653431
165.31216376966475 -2.041689766145137 -52.09476355627979
170.14108053924303 2.7539086303593274 -28.08725382192033
165.41942972951773 -2.0108994557029227 -51.5496840245935
169.73268776296007 3.258001474761682 -30.259290748809423
165.56959497949651 -2.0127092372941693 -50.77961490700677
172.76176300741758 5.9703316939004605 -15.153825581162764
165.68181105034154 -1.9314372789820144 -50.21702079908343
170.12455603328755 4.931725336458707 -28.511117435353786
165.80664865037855 -1.8353443548258017 -49.59203532529788
170.28640781142064 5.8044147219312245 -27.8173304810243
165.9994513084272 -1.7749591377347016 -48.61307826914323
172.8284682460246 9.161707668058172 -15.308877237767625
166.27535374792606 -1.7344656478627054 -47.20503528040834
172.871267751681 10.26817931274689 -15.26178791288644
164.70233637032206 -2.1256029996039727 -55.14229332164291
166.6547527110236 -1.7219183350017937 -45.02730552625468
164.74399804499743 -2.1164295920272793 -54.926543042020405
167.26849074081335 -1.7177880291861976 -41.82832750330702
164.7858386270432 -2.0980651850101193 -54.71130835232857
168.00420098138352 -1.6128408061873052 -38.00935969244921
164.84062502117808 -2.103034346093944 -54.42490405050416
169.04975287718156 -1.414341179333027 -32.589822126726204
164.89828916700424 -2.0994248639863713 -54.12485030224571
170.8597333121455 -1.095063342585363 -23.204095929103595
164.95864275006144 -2.0880819585159567 -53.81199462828632
172.16432613931087 -0.30769217361249157 -16.52693048583899
165.02610302472672 -2.0763944617639516 -53.46214304889881
172.47132158282403 0.7279995663126586 -15.08974365904809
165.1009294395696 -2.060695478831741 -53.07452096415592
172.49320973108246 1.7683370490637456 -15.139648563630573
165.1905512188058 -2.0539393932469987 -52.608356447304594
172.52226918055396 2.810691484341328 -15.152482253597562
165.28854614775722 -2.038182911073381 -52.09995929005874
170.02379190205596 2.7483184589979377 -28.16808886369259
165.3968650274303 -2.011754995656932 -51.539421392704654
169.69829134570185 3.29264727158014 -29.950854885898
165.54321640284775 -2.0114416922019864 -50.776490085826026
172.6034049673166 5.961278848980706 -15.226206953945152
165.6557834086667 -1.9327622729496257 -50.20204250743086
170.0368539310961 4.942012909686278 -28.44584199966551
165.7783033694115 -1.8359929181953518 -49.578559213517664
170.205555804791 5.824320452889637 -27.70544121731456
165.97056570764877 -1.7777269145859758 -48.58541490292273
172.6747588699975 9.150406685701848 -15.357000025204385
166.2391610333509 -1.7342245802712521 -47.191991584109324
172.7283129349518 10.267962987659814 -15.253996600764644
164.69138784310005 -2.125272585248801 -55.14020925297405
166.61770064586406 -1.7222341519872615 -45.0081334417988
164.7321428146991 -2.115167780443716 -54.926096950886595
167.22070895249 -1.7165387119130198 -41.81720640959372
164.77615446056478 -2.10467159711606 -54.69480790674716
167.95269867528444 -1.6142170770869448 -37.95896526708044
164.82767230486147 -2.1026434491579105 -54.42243851948082
168.97983748663125 -1.4133292137027116 -32.55415327742308
164.88513546903198 -2.100582550853301 -54.118603167338414
170.7654586155771 -1.0930729688446366 -23.153591330596157
164.94300911642816 -2.085407184978242 -53.81468710413817
172.02984880608795 -0.30334062317380794 -16.5868386957415
165.01078803942593 -2.0766231244856868 -53.45732078785996
172.33228186640568 0.7304836107327466 -15.150812264620448
165.08453531317505 -2.0608474566947788 -53.06947734294288
172.35264698733636 1.768525821625151 -15.208514297520978
165.17285959050253 -2.054008143590575 -52.60305101472115
172.37933139359714 2.807976841612599 -15.232972837371413
165.26909858969614 -2.0375960011780907 -52.09625731762055
169.9220099811788 2.7442194370989235 -28.229865000396128
165.38133995913046 -2.0194965002092755 -51.50502848603704
169.9869016713974 3.506481074821799 -28.007902584479204
165.51972630683403 -2.0102647292431746 -50.773995561784005
172.46059202614913 5.951467646659091 -15.303989594461981
165.63137771214042 -1.9324485096919728 -50.19541030696101
169.97200189981916 4.962087185532926 -28.31882085100681
165.7514438715577 -1.8348053169265761 -49.575442695033765
170.09720145703145 5.808319519150757 -27.791028828510235
165.9405695700142 -1.7761591102686929 -48.58371562473441
172.5349498191302 9.136621388453532 -15.41817831612542
166.20741797258236 -1.734408166449083 -47.17789442027063
172.58810706475978 10.252180677570019 -15.31465278473405
164.68102203827863 -2.1268521491879104 -55.13468974209681
166.57772098060894 -1.7205543423524878 -45.004674667836
164.7202920067444 -2.1139072950558684 -54.92568547091839
167.1739692065091 -1.7159055479697767 -41.800346480633934
164.76395616083406 -2.10430494402084 -54.69252081017656
167.88762857002328 -1.6097693729631721 -37.981251753478304
164.81533135950377 -2.1039128717841473 -54.41642131681715
168.9057869237847 -1.4111034574030188 -32.540270133740734
164.87132906964916 -2.100167560208282 -54.11601452222772
170.66878013753157 -1.0907017059108017 -23.115125500727977
164.92898871477175 -2.0864547207197566 -53.808281193324284
171.88993371890004 -0.29872787837659404 -16.678621103655153
164.99545623694476 -2.076853194139151 -53.45254049038613
172.1921957712305 0.7328251958568177 -15.220171271337044
165.0677972117143 -2.0603443439206157 -53.06633898051124
172.216588168671 1.7695125887088445 -15.256204901163912
165.1528368192318 -2.0497900897226167 -52.610918258283846
172.2391302646983 2.805960234346446 -15.302151002986527
165.24930826356479 -2.036442957184407 -52.094497618574394
169.80179066495825 2.731523712669701 -28.391839781574422
165.3585429112561 -2.016245313331479 -51.510573998721085
169.86592405480982 3.4896031651465003 -28.16932600806108
165.49657809204982 -2.009568932672576 -50.76965510232364
169.79893023402633 4.169689996256642 -28.639108875021098
165.60729514287797 -1.93257039605439 -50.18692115582846
172.3426590121429 6.999434429085788 -15.421800573923846
165.7249311417349 -1.834008426547361 -49.57047225803157
170.01085909380393 5.812732773180275 -27.76482515617205
165.9116331355967 -1.775620651110854 -48.576285614556156
172.3922331277578 9.119227398289105 -15.497105847817508
166.16996629383192 -1.729857326230465 -47.19502050576147
172.44499321232865 10.232375752368077 -15.392980312305674
164.66878851836782 -2.124594783575584 -55.13600701147276
166.53563050270682 -1.71905573057869 -44.99892776298996
164.70860238067579 -2.115365841745234 -54.91991043970035
167.12237641297733 -1.7141682665893863 -41.792850003875216
164.75009008725496 -2.1013025576169104 -54.69545389314904
167.82257184843388 -1.6067958703064695 -37.98344073712101
164.8024536751048 -2.1059883944556512 -54.408494566396286
168.82776649866565 -1.4089682003297648 -32.521813900801746
164.85541683613664 -2.0965818982424147 -54.120557492235754
170.57065296180332 -1.0890491343712536 -23.048240648340617
164.91433298676276 -2.0882190280465136 -53.79991443009348
171.74318871253664 -0.29392560519408095 -16.769500461830823
164.9791235645522 -2.077055302654079 -53.44762261499199
172.07699394443915 0.7379415548168249 -15.113511668157926
165.05000077727567 -2.059811704598527 -53.06305608331332
172.09743110181375 1.7757495880501624 -15.171218875482197
165.13596351417723 -2.0535042805444 -52.59425407569211
172.1261755712088 2.8157019841258637 -15.18387274087953
165.22764130618404 -2.034119541855134 -52.09635047883067
169.80912032510932 2.7800398131965887 -27.841974878558133
165.33679303842916 -2.0166208838162345 -51.50263519381336
169.97859123141896 3.61312149692061 -27.051713499346114
165.47095878991087 -2.0073974690519982 -50.7708531538874
169.71521703629872 4.177624725441495 -28.583337471919563
165.58094584509794 -1.9317817757271596 -50.1820605731306
172.21940605720613 7.009478393862312 -15.358866075802368
165.6981094107319 -1.834713841208233 -49.55754264821113
169.92507866477203 5.82329757051702 -27.704958676876792
165.88221329487519 -1.776397049483098 -48.560839222611264
172.25071994930673 9.111189804674781 -15.530791856950508
166.13784779991556 -1.7314651658501814 -47.170994171344766
172.32450994260972 10.249170126602955 -15.313245396457987
164.65924368154563 -2.129038518784816 -55.125343260174816
166.49668087776584 -1.7181337166977784 -44.98984010231077
164.69558809855818 -2.1104570772200932 -54.926589812370814
167.07587104983116 -1.7137468210590159 -41.77429674298861
164.739068983935 -2.104423984294862 -54.68613546778106
167.75950584842127 -1.6031561491711632 -37.99630881194027
164.78885951129942 -2.1039424257837207 -54.40972562141511
168.75432722062382 -1.4069790979968926 -32.50442171892499
164.84282850616933 -2.0993162725217265 -54.11079765198337
170.47497942855176 -1.0869471043160275 -23.00242553748589
164.9002516286286 -2.089268417642877 -53.79358404996616
171.6122276564218 -0.28976624955944624 -16.818898226238744
164.96344260263731 -2.0765879303152004 -53.44477600431591
171.98600690508638 0.7442243340228369 -14.914073137704392
165.03387678042623 -2.060625088284463 -53.05628907518912
172.0105018015947 1.7870366814498426 -14.950283540459651
165.1172593375304 -2.051741217134263 -52.594728222582056
172.03424931710677 2.829967186505322 -14.990673355604201
165.2101264381723 -2.0369476212549436 -52.08147724434182
169.92229711333886 2.8771580976447524 -26.726233520862827
165.31731389255805 -2.0186064979148193 -51.48929039229538
169.941667559895 3.647571317571158 -26.745913807485863
165.44681086143962 -2.0052731213808963 -50.77238962148539
169.5565623940855 4.127254796701347 -28.963648686549
165.55713779432082 -1.9323412259293666 -50.171784985413105
172.12834853505126 7.040468666120426 -15.163572117338042
165.6728934661136 -1.835470874592472 -49.544987570071235
172.1432596880268 8.092145748597835 -15.254478564987899
165.8511659664334 -1.773814544239308 -48.56521734568001
172.1652513429188 9.156277976040855 -15.308113368426724
166.10598314732997 -1.7316575797624976 -47.15716869007006
164.6479691812243 -2.1277581956082505 -55.12511481871916
166.45396665465677 -1.7144741624263073 -45.00236862446582
164.68545747625546 -2.1146774223043554 -54.91574229054676
167.02723393890315 -1.7121100674274448 -41.76763014132564
164.7262672384572 -2.1023190721978766 -54.68750534406135
167.69928266473698 -1.6007817280382302 -37.99365016960574
164.77645210333822 -2.1052150021165215 -54.40381185579676
168.68254814921022 -1.4055487045497854 -32.47740005740582
164.83019208391744 -2.1020511351990967 -54.10106878817016
170.38360078753962 -1.0856820650348817 -22.93127487132528
164.88523325989806 -2.088087942613359 -53.79278751665651
171.51120791334924 -0.2871182750613997 -16.701303897283132
164.9474453801913 -2.0754220663995797 -53.44382115879487
171.89150756822997 0.7503191607705326 -14.728578678376458
165.01834363161439 -2.0627518643697353 -53.04583795410004
171.91923242356864 1.7976630567512928 -14.747199324068738
165.0998236382436 -2.0524293244389864 -52.58774530134787
171.94235117522885 2.844614051622997 -14.791743875905318
165.1925370766992 -2.039775890031698 -52.06664733417428
169.85685703674577 2.8919947914257413 -26.56878449532075
165.29680400836835 -2.019024655804685 -51.48170386169035
170.05773196962323 3.7761479528897506 -25.582979449196436
165.42528089864396 -2.0069752868276827 -50.75868136924963
169.44991729330295 4.113594722376886 -29.069483310098175
165.53361115021718 -1.933334760533446 -50.15964854535868
170.00598282599069 5.308033209651862 -26.13109187376927
165.6459621654518 -1.8342941723858226 -49.542171260267764
165.8221591584704 -1.7732849721932957 -48.55803370282089
172.06373777479678 9.18464939580649 -15.166541334289306
166.07270878102722 -1.7306699105370404 -47.15122445506883
164.63697323814088 -2.127433156164223 -55.1231822845442
166.4156796536942 -1.7140602476247038 -44.98959437165172
164.6741553995035 -2.115247525054904 -54.91194910042133
166.9816069763819 -1.7123056706023745 -41.74345015684318
164.71376306708441 -2.101086730137104 -54.687135696165285
167.64008793792053 -1.598885206718142 -37.985269825740815
164.7634410642857 -2.1048303876990944 -54.40152496017572
168.61065638564725 -1.4041239974424928 -32.45057132629253
164.81604260250376 -2.1008553394895606 -54.10044866289834
170.28709592861165 -1.0835266316749277 -22.88793332994939
164.87140804339273 -2.089882793516927 -53.78470248460592
171.42502639943572 -0.28524795218883153 -16.495287883063753
164.93265753909256 -2.0770583543959202 -53.435515765015445
171.80257627055542 0.7569862811773822 -14.505846537018869
165.00123307883314 -2.061599121638595 -53.04474852924133
171.8268880930381 1.8083059766795355 -14.54428550391679
165.08235817130665 -2.053118790956932 -52.58080997304535
171.84940203836487 2.8592768140775946 -14.592987566420383
165.17424985097114 -2.041468972519317 -52.05564519036872
171.89313833695468 3.929329866243041 -14.523171879145892
165.27499664884104 -2.017352996646043 -51.48179166872018
169.97543098424526 3.786239331411247 -25.499874107702446
165.4014484881297 -2.0053342318220144 -50.75843581473403
169.2496016605614 4.029161371768205 -29.704698244401644
165.50873814423326 -1.932599519035792 -50.155277194691905
169.32025873094398 4.7873961967515966 -29.42768858849109
165.6209840579236 -1.8354419181887345 -49.52781911931868
169.97751024254993 6.153552760436144 -25.888552672529002
165.79444173263153 -1.7741231894880685 -48.54315770834935
171.97819173034586 9.232164126692407 -14.93261793718225
166.0390867844534 -1.7293904894047711 -47.14732373859049
164.62459759494894 -2.127068930135449 -55.12104495033373
166.36849496385145 -1.7105182271337707 -44.99956929014708
164.66166334614653 -2.1166883388052042 -54.906179910221105
166.92421402186423 -1.7088788776574122 -41.75170958081919
164.700851671598 -2.103294558300975 -54.67942528572794
167.57219290810167 -1.5961530072270003 -37.983662686862374
164.74823081998372 -2.1027417310407137 -54.40259191082666
168.52668877304092 -1.40155256378706 -32.43809823357055
164.7998782065704 -2.098824503341895 -54.101389614617254
170.18245849913257 -1.0818965739133801 -22.81508729327342
164.85424260042848 -2.0879087463253883 -53.78550630060907
171.35986778633506 -0.2848080723587836 -16.070006828668923
164.91497814882385 -2.0765380328219227 -53.432462409505995
